    -14.3166 -15.9242 64.9095
    -14.3116 61.6208 3.09039
    -14.3051 -27.6631 -0.89383
    -14.3037 61.5123 17.8842
    -14.2859 62.2229 6.25102
    -14.2956 46.134 60.8152
    -14.2844 59.0227 22.7985
    -14.2773 43.3299 32.1308
    -14.2693 46.8641 28.115
    -14.2673 3.31232 54.3231
    -14.2663 43.3055 62.8039
    -14.2624 7.10086 54.5853
    -14.2398 -21.5511 64.5157
    -14.2388 -8.20667 60.07
    -14.2388 2.68492 57.2692
    -14.2385 -11.3627 52.5583
    -14.2247 56.8549 0.734921
    -14.222 25.8992 58.3726
    -14.1874 -16.624 13.8597
    -14.1854 54.8262 0.289913
    -14.1695 -15.9401 66.5673
    -14.1622 35.0291 40.5864
    -14.1406 -16.3264 17.1245
    -14.1276 54.7477 6.01576
    -14.122 -17.1264 11.8359
    -14.12 10.2418 54.9323
    -14.1147 61.266 1.97826
    -14.1086 59.2821 12.8191
    -14.1053 -22.1529 0.422968
    -13.803 21.213 62.8647
    -14.1003 -29.7191 57.6969
    -13.9844 -18.26 9.60513
    -14.083 62.6208 10.0867
    -14.0825 -2.52569 59.2333
    -14.0815 -9.68129 56.8069
    -14.0808 1.60934 59.8868
    -14.0776 -48.1413 74.6338
    -13.8967 -25.7216 -0.509
    -14.074 9.4961 59.2616
    -14.0705 57.8089 24.2494
    -14.0679 -14.7429 22.6385
    -14.0554 62.5052 13.8816
    -14.0963 -23.2169 -0.184455
    -14.0506 -6.31546 63.3701
    -13.8518 -31.8052 2.09779
    -14.0245 -4.3623 61.5211
    -13.8385 -31.5748 0.994904
    -13.9993 4.99043 60.9583
    -13.9898 -1.45597 56.189
    -13.9537 -31.6128 3.21919
    -13.9832 0.77151 60.9156
    -13.9706 -1.29308 54.1137
    -13.9506 -9.33834 65.0904
    -13.9479 -7.36916 57.7885
    -13.5135 57.569 7.70653
    -13.9155 23.5954 64.0699
    -13.8882 -9.78451 55.0806
    -13.6814 -31.016 0.464223
    -13.8743 -21.4808 65.8997
    -13.8693 -13.0328 27.5901
    -13.8296 -48.7329 72.2632
    -13.824 52.7124 2.73124
    -13.8126 56.3256 6.66657
    -13.5627 -26.3193 64.004
    -13.7988 -21.1446 26.4842
    -13.7938 7.99503 62.125
    -13.7885 -7.19816 55.2611
    -13.7852 -10.3889 44.4286
    -13.779 -21.3294 22.7404
    -13.7743 6.84142 50.6243
    -13.7613 -28.25 -0.753366
    -13.7572 -9.93421 53.0249
    -13.754 3.1114 50.5324
    -13.7674 -31.621 3.19696
    -13.5213 56.0647 26.3377
    -13.7216 58.2463 9.07303
    -13.7162 52.7901 1.38524
    -13.6984 -1.14654 62.9848
    -13.6965 -15.4351 67.9777
    -13.6932 -28.6253 5.90475
    -13.5133 -24.4062 -0.384235
    -13.6709 3.8951 62.3821
    -13.666 49.4881 46.2133
    -13.5414 -29.6943 -0.0583899
    -13.5325 52.9676 28.6464
    -13.6404 -30.1059 59.3253
    -13.6355 21.5723 64.6359
    -13.6307 46.194 27.8916
    -13.6277 13.2052 55.277
    -13.6233 53.923 21.5342
    -13.6224 55.1142 20.0261
    -13.6197 51.2654 50.4029
    -13.608 52.6794 22.9275
    -13.5963 22.8271 60.6937
    -13.5892 51.6151 52.9264
    -13.5849 -6.99276 53.358
    -13.5833 -10.9193 32.7977
    -13.5755 -12.6821 66.4527
    -13.5743 49.8311 25.2182
    -13.5646 -31.2758 49.2048
    -13.5346 53.2498 0.854647
    -13.5221 47.6597 41.9797
    -13.5117 56.4682 0.359163
    -13.5078 48.8312 32.5392
    -13.5 -32.7328 52.1742
    -13.486 12.1268 59.5423
    -13.4917 -3.25648 64.91
    -13.4892 -29.5464 46.6813
    -13.4656 50.3866 46.4803
    -13.4645 -22.0386 39.7045
    -13.4482 -21.5955 67.1498
    -13.4595 51.4098 56.535
    -13.4558 -1.41992 50.6659
    -13.4444 60.862 1.36842
    -13.4422 53.9693 5.10624
    -13.4375 57.4858 15.9917
    -13.4299 -27.9701 44.5853
    -13.2088 -22.6278 -0.050226
    -13.4175 -9.40584 35.0371
    -13.4136 58.5513 12.6136
    -13.399 9.84601 50.8287
    -13.3756 -24.4469 41.4996
    -13.3705 -6.10088 66.608
    -13.3313 -29.92 -0.034134
    -13.3493 6.65049 63.6927
    -13.3409 -26.4422 7.64476
    -13.3178 46.9038 37.389
    -13.3144 -49.2969 76.4626
    -13.3111 -28.6201 5.70159
    -13.3093 37.8547 36.6857
    -13.2795 42.779 66.2874
    -13.2712 54.4578 0.431096
    -13.2705 47.0199 63.5371
    -12.941 -25.6965 -0.506205
    -12.9371 -30.5418 61.6395
    -13.24 -10.2629 49.8354
    -13.2364 10.4571 62.9497
    -13.235 -8.91183 36.4012
    -13.2295 61.9675 21.9124
    -13.2276 -20.7474 31.607
    -13.2273 42.1287 31.7126
    -13.2195 54.6046 5.79362
    -13.2181 49.6227 60.9695
    -13.2131 -32.2312 3.73608
    -13.2076 60.9534 24.1977
    -13.1998 60.2907 25.1423
    -13.1959 2.66688 47.7863
    -13.1842 61.4633 23.3045
    -13.1756 62.4089 18.2731
    -13.1712 -24.4036 12.3195
    -13.1705 1.49376 64.4086
    -13.1684 -25.0025 10.1306
    -13.1652 -17.3056 69.5549
    -13.1477 -23.5413 14.1093
    -13.1425 53.9042 2.7488
    -13.1379 25.9324 50.2188
    -13.0986 53.9904 1.46301
    -13.1335 -49.8343 73.9828
    -13.1323 -32.6281 2.39841
    -13.1301 5.86972 47.2881
    -13.1222 56.1924 6.51759
    -13.1089 -8.65639 37.5703
    -12.708 58.1134 0.859228
    -13.1023 49.659 41.8741
    -12.957 54.9479 4.72714
    -13.0945 20.4957 60.7791
    -13.0868 59.5901 0.846734
    -13.0813 -26.3762 65.4893
    -13.074 28.3866 47.7134
    -13.0713 -9.60603 40.8695
    -13.0686 -33.2632 54.3812
    -13.0645 -46.7831 73.557
    -13.0569 50.0304 32.5438
    -13.0421 -30.849 4.69566
    -13.0412 -21.0431 34.8302
    -13.0313 -22.0995 0.769821
    -13.0237 57.476 7.51416
    -13.0181 -1.65252 48.7682
    -12.9991 -6.71862 50.3934
    -12.995 54.1739 28.9521
    -12.9903 -47.5398 71.1798
    -12.9778 -16.4599 14.2384
    -12.9483 -9.41579 50.2557
    -12.9335 48.2291 37.2997
    -12.9246 -32.3705 0.786159
    -12.9186 13.0223 51.3617
    -12.9068 -17.0635 12.1634
    -12.9062 53.9335 2.78488
    -12.903 63.0546 14.1198
    -12.8926 57.8486 9.00817
    -12.8757 8.88504 64.9241
    -12.8521 53.9643 1.49716
    -12.8655 -27.385 -0.2753
    -12.8572 -22.7663 17.0547
    -12.837 30.471 44.085
    -12.8359 -20.8682 4.7656
    -12.8057 -21.5086 2.92064
    -12.6722 55.2136 1.07849
    -12.8145 58.1909 27.1579
    -12.717 55.0666 4.94908
    -12.8026 -20.2021 6.2879
    -12.7987 17.1776 61.1748
    -12.791 -18.1841 10.0021
    -12.7787 -1.07095 66.3245
    -12.7777 -18.8727 70.8689
    -12.7709 56.0044 0.399885
    -12.7682 -31.6535 -0.07698
    -12.7577 -16.0872 17.535
    -12.7555 49.7053 37.2717
    -12.7526 16.4692 63.8519
    -12.7314 -4.33913 67.6863
    -12.7255 -26.5386 66.5856
    -12.7241 14.9425 61.009
    -12.7116 -28.6168 5.96268
    -12.7116 51.4819 32.5716
    -12.7113 -19.0997 8.19718
    -12.7033 -22.7222 69.7185
    -12.676 12.9542 63.5274
    -12.6729 58.1851 12.527
    -12.669 -33.5773 55.6445
    -12.6019 16.0703 59.0849
    -12.6007 56.0259 29.3432
    -12.5946 -30.4305 -0.543313
    -12.5768 3.64175 65.7929
    -12.576 35.3139 67.8853
    -12.5695 57.0064 15.8827
    -12.5198 56.3322 5.79772
    -12.5275 54.9623 19.7401
    -12.5253 60.3792 0.873178
    -12.5231 8.72094 47.0567
    -12.5224 53.7775 21.2845
    -12.5126 -7.49881 67.7978
    -12.5073 52.339 22.829
    -12.4865 -12.9908 27.7927
    -12.4812 52.5351 2.79976
    -12.3911 56.3021 0.984038
    -12.459 11.4654 65.6985
    -12.4571 -26.3608 7.91566
    -12.4563 -30.6763 62.7505
    -12.4551 53.9208 5.26888
    -12.3597 -25.866 -0.370557
    -12.4483 54.6894 5.8958
    -12.4238 -21.9598 22.8412
    -12.4236 22.789 58.5572
    -12.4051 18.0483 58.9629
    -12.4019 52.41 1.41889
    -12.4011 -28.9721 -0.526581
    -12.3988 53.4417 32.6926
    -12.391 63.3377 10.2005
    -12.3856 -49.8102 71.2369
    -12.3827 23.8254 53.351
    -12.3806 -14.3065 22.871
    -12.3286 58.7449 0.750152
    -12.3766 49.3391 25.411
    -12.3754 16.6421 55.5984
    -12.375 -32.1516 4.05453
    -12.3574 -30.7973 5.03239
    -12.2754 57.3763 7.15447
    -12.3559 57.8898 8.9477
    -12.3429 20.4328 58.8456
    -12.263 -12.9696 70.836
    -12.2566 51.8099 37.4728
    -12.2532 52.8335 0.738578
    -12.2439 -9.4571 46.11
    -12.2393 63.1619 7.89918
    -12.2371 -26.7807 67.8295
    -12.2293 -49.0989 80.1258
    -12.2164 16.2841 66.0584
    -12.1988 -32.5477 2.61688
    -12.1815 1.62617 44.828
    -11.9268 -33.9295 57.7363
    -12.1557 16.1388 51.9342
    -12.151 52.6226 46.2296
    -12.1505 44.9141 27.739
    -12.146 -28.5755 6.24698
    -12.1352 4.49568 44.0626
    -12.0965 62.8763 5.97196
    -12.1164 44.9107 67.7429
    -12.1164 51.6734 41.7317
    -12.1154 -10.4859 69.1445
    -12.1142 -2.28458 45.9425
    -12.1064 -18.97 72.0518
    -12.0891 -21.7817 26.5614
    -12.079 -27.5125 -0.261876
    -12.0606 22.9336 56.0671
    -12.0469 57.4819 1.20261
    -12.0448 -11.1333 32.8183
    -12.0374 33.8423 39.2187
    -12.033 18.2307 55.8442
    -12.0306 53.7506 49.5517
    -12.023 11.547 47.3983
    -12.0025 -30.7277 63.7966
    -11.9849 -32.3255 0.885104
    -11.9696 0.4216 67.5168
    -11.966 25.175 49.4929
    -11.8183 62.1611 2.42273
    -11.9647 53.9847 0.310883
    -11.9643 42.0024 68.9884
    -11.9582 56.558 6.60439
    -11.9547 21.7613 50.0813
    -11.9455 57.099 15.9491
    -11.9435 -22.948 71.2181
    -11.9318 -15.7333 72.0464
    -11.9222 -21.8024 36.9384
    -11.9204 -8.85919 46.7787
    -11.9022 -23.5317 38.037
    -11.8902 -26.7581 40.1172
    -11.887 58.069 12.5634
    -11.8833 19.6569 55.8925
    -11.8794 28.966 67.8958
    -11.8748 20.9034 55.9854
    -11.8738 62.011 22.2399
    -11.8623 -31.6011 -0.073365
    -11.8599 53.9494 52.7792
    -11.854 61.7681 1.54301
    -11.8497 -6.6636 46.976
    -11.7986 18.245 52.2404
    -11.8318 -47.4405 78.5879
    -11.8048 15.1703 48.7829
    -11.7799 48.819 65.0633
    -11.7777 -30.3996 -0.59043
    -11.7767 55.9559 0.63641
    -11.7509 -50.1425 77.93
    -11.7316 -48.6773 70.0425
    -11.7315 -29.0057 -0.563025
    -11.7307 40.8088 31.3212
    -11.715 -50.7941 72.5965
    -11.7065 21.7052 52.668
    -11.6941 58.0293 9.04109
    -11.6792 36.8069 35.8774
    -11.6492 61.6885 23.8383
    -11.6659 -30.4827 4.98779
    -11.3692 -23.4886 0.0334954
    -11.6192 53.342 57.1671
    -11.6426 -17.8534 13.7127
    -11.6011 -31.6781 4.09692
    -11.5973 -35.2454 48.4327
    -11.5943 21.7527 49.0228
    -11.5914 19.0441 49.7668
    -11.589 25.0753 48.578
    -11.5851 -30.7334 43.2584
    -11.5675 17.0022 49.2579
    -11.5598 -23.5271 12.6014
    -11.5514 6.13209 67.5029
    -11.1884 60.7592 0.975324
    -11.5429 -19.2727 10.2949
    -11.5427 7.2579 43.5847
    -11.5356 -27.2335 69.5544
    -11.5309 54.7799 6.28545
    -11.5253 51.787 61.4001
    -11.5227 18.9174 48.7243
    -11.5184 -22.7301 14.5309
    -11.3971 -26.2468 -0.270393
    -11.511 -30.8375 65.1087
    -11.5095 60.0429 25.8651
    -11.506 -33.5285 45.9409
    -11.5025 -28.2939 6.2621
    -11.4966 10.9357 67.7848
    -11.4866 -36.0147 51.4953
    -11.4768 54.0318 5.62172
    -11.4661 25.7836 67.8785
    -11.4597 62.692 18.5665
    -11.452 -17.1405 17.8365
    -11.4426 -24.3822 10.4554
    -11.439 14.6194 47.1187
    -11.4306 -9.65367 35.2085
    -11.4217 -25.9063 8.33302
    -11.4039 56.4426 6.86945
    -11.4008 -31.9974 2.76785
    -11.3742 -46.3767 70.1276
    -11.3729 -27.5795 -0.12109
    -11.1759 -22.7701 0.873799
    -11.3642 16.5519 47.906
    -11.3544 -13.0795 27.9973
    -11.35 -3.62931 68.8494
    -11.3449 52.6207 3.13504
    -11.3432 -19.971 8.36601
    -11.3263 -29.8482 4.55663
    -11.3008 58.4189 27.1489
    -11.2914 -21.7579 17.4948
    -11.2442 -30.8874 3.48625
    -11.0765 58.4359 0.807848
    -11.2521 -20.9153 6.45981
    -10.845 57.3629 1.09661
    -11.2325 -34.1283 59.4687
    -11.1995 -31.8353 1.14623
    -11.1868 -21.5867 31.0223
    -11.1731 -21.4815 4.89518
    -10.9951 -8.96432 37.9624
    -11.1537 -50.4105 75.4919
    -11.1515 52.4834 1.59153
    -11.1474 28.0092 47.2481
    -11.109 -30.5665 3.78808
    -11.134 -29.0513 -0.192262
    -11.1247 9.45855 43.6461
    -11.0759 -21.9352 3.45859
    -11.1029 -31.2349 0.281018
    -11.093 -15.6112 23.1532
    -11.0876 -45.3111 72.3629
    -11.0839 -30.2423 -0.192628
    -11.0733 -28.0244 6.14775
    -11.0609 -8.61942 42.6015
    -11.0547 -36.4775 53.3241
    -11.0516 57.8883 12.609
    -11.0484 -50.1381 80.592
    -11.0342 63.4715 14.5819
    -11.0172 57.3851 16.1793
    -11.0125 52.9457 0.849038
    -11.0091 22.0002 68.1862
    -11.0011 56.4543 29.4107
    -10.9933 -45.8997 77.4014
    -10.9874 55.1156 20.0885
    -10.9596 -31.2571 66.9441
    -10.9477 54.0174 21.5133
    -10.9455 57.6796 7.72191
    -10.9434 -25.7359 8.40485
    -10.9401 54.014 0.335267
    -10.8681 -30.5983 1.1626
    -10.9209 -52.3485 87.1962
    -10.9162 -30.7111 2.72974
    -10.9067 58.1363 9.00354
    -10.8999 -10.3951 72.2444
    -10.8921 55.7974 0.679082
    -10.8897 16.4707 68.0294
    -10.8833 52.6341 23.1143
    -10.8428 -54.27 89.6904
    -10.7103 -29.4628 0.692952
    -10.8033 -34.2573 60.681
    -10.7982 -22.7373 73.1337
    -10.7949 -7.99485 43.3383
    -10.7819 -47.3954 68.9935
    -10.7789 56.4702 6.86164
    -10.7582 -11.9572 33.0511
    -10.7482 -7.24156 70.6553
    -10.6608 -30.4461 1.30524
    -10.7065 -20.6948 23.0263
    -10.6937 -27.8358 0.135554
    -10.6806 -21.5995 14.7616
    -10.6755 -27.744 6.49086
    -10.6716 -20.5481 17.8092
    -10.6624 -13.8289 73.1932
    -10.5851 -24.6836 -0.0305748
    -10.6451 -52.6704 87.2674
    -10.6293 -7.12674 43.8174
    -10.6226 49.6546 25.4888
    -10.6144 16.0983 47.0055
    -10.6131 -18.5207 17.9822
    -10.61 -19.6546 14.1921
    -10.6029 -14.2689 28.1368
    -10.591 -29.5803 5.19863
    -10.5841 -36.6908 54.8852
    -10.5819 -0.088026 42.2087
    -10.5892 30.0681 44.4943
    -10.5734 -51.1291 84.7441
    -10.5726 -23.0059 10.766
    -10.5695 21.7691 48.8506
    -10.5688 55.0281 6.40493
    -10.5678 18.8227 47.9918
    -10.5627 -18.1951 73.5494
    -10.5216 -54.4712 89.5545
    -9.9384 58.7171 0.937084
    -10.5224 63.5527 10.6202
    -10.5147 -30.7199 4.20979
    -10.4531 55.7571 5.57739
    -10.5056 54.3883 5.77534
    -10.5023 -21.1011 10.3644
    -10.4902 57.7357 7.36322
    -10.4859 54.9618 32.678
    -10.4832 -34.4534 62.1904
    -9.95871 -27.364 0.244981
    -10.4673 -32.3976 68.8655
    -10.4537 60.5738 22.4035
    -10.4454 2.92413 41.4394
    -10.4405 45.4562 27.9714
    -10.4056 -28.1533 72.1944
    -10.3602 56.7361 6.23077
    -10.3972 -21.6274 33.7132
    -10.3917 13.7577 45.6463
    -10.3862 -19.9044 27.0775
    -10.3827 40.8013 31.3961
    -10.3638 55.1072 4.64788
    -10.3703 1.93633 69.1208
    -10.3659 58.4063 9.48975
    -10.1934 58.4841 25.0627
    -10.3318 -30.9714 3.02638
    -10.1141 -52.4937 87.5104
    -10.2874 -17.0357 23.4146
    -10.2847 -3.60462 43.2254
    -10.2701 -51.2774 73.825
    -10.2588 -19.5045 23.2243
    -10.2579 -49.4727 82.3684
    -10.251 -23.5196 0.608763
    -10.2457 53.0042 3.37205
    -10.2442 63.3145 8.36053
    -10.0308 -10.3272 37.5073
    -10.0512 60.2223 1.00994
    -10.2135 -34.9335 70.7706
    -10.2096 -34.885 64.1126
    -10.2031 -21.3759 8.47891
    -9.94484 -29.3376 0.242566
    -10.1815 61.3501 18.4048
    -10.1681 33.6992 39.2021
    -10.161 -24.5268 8.52219
    -10.1581 -49.2169 88.0535
    -10.1552 5.73439 41.2199
    -10.1401 -35.8274 65.8885
    -10.1281 36.4312 35.666
    -10.1087 -30.7981 1.6808
    -10.1055 54.4509 45.7468
    -10.0894 55.5753 1.0207
    -10.086 41.6527 70.5527
    -10.0803 -37.6689 67.6678
    -10.0637 -22.2045 6.68086
    -10.056 58.8808 13.1715
    -10.0178 62.9581 6.58094
    -10.0508 58.3038 16.9398
    -10.0477 -36.8728 56.2188
    -10.0343 34.7996 70.8694
    -9.96332 54.7391 3.27606
    -10.0269 13.5746 45.3467
    -10.0192 -22.6752 8.61301
    -10.0148 -27.0496 6.57276
    -10.0035 53.7053 37.3397
    -10.0024 -30.406 0.896302
    -9.98811 -27.35 39.7126
    -9.97744 61.6271 1.61616
    -9.94596 56.8779 1.415
    -9.97257 54.0849 0.667865
    -9.95939 55.3198 6.04078
    -9.9672 52.8599 1.82586
    -9.95891 -51.7631 90.5156
    -9.95721 -38.1739 72.5863
    -9.95694 -29.2324 5.32112
    -9.94136 58.188 8.05744
    -9.94077 -23.1404 36.8319
    -9.93965 24.8205 48.8419
    -9.67094 56.5787 26.4993
    -9.92039 -40.3675 69.2588
    -9.9173 -21.891 35.6067
    -9.91185 -49.6529 82.8046
    -9.91063 15.8347 46.8173
    -9.89007 -22.6131 5.04787
    -9.88991 53.4534 41.5257
    -9.88357 -30.5291 4.38258
    -9.87632 -23.3018 1.51581
    -9.87259 -32.5865 74.1768
    -9.85389 -13.3847 33.3169
    -9.85309 -44.5437 76.3168
    -9.85065 53.2688 1.18188
    -9.73677 62.1092 2.72917
    -9.83919 -37.9457 49.0089
    -9.82968 56.9291 6.97064
    -9.33183 -55.9326 93.1017
    -9.73592 55.7161 1.45444
    -9.80871 61.9546 14.5331
    -9.80725 54.7816 49.0121
    -9.70061 54.7894 1.90128
    -9.77725 -49.7775 83.2272
    -9.69744 -23.0237 2.97301
    -9.76149 -24.5174 0.555895
    -9.76116 59.2151 9.88892
    -9.75905 -15.6119 28.3173
    -9.75604 -50.5417 82.5896
    -9.75067 -41.9346 67.5125
    -9.36242 -54.4272 89.7763
    -9.73775 8.18766 41.265
    -9.6616 -25.9962 0.481927
    -9.72678 58.9232 21.988
    -9.72028 -18.2135 27.5458
    -9.71533 -30.8629 3.25881
    -9.69605 18.7471 47.5254
    -9.68825 57.1417 21.2921
    -9.68215 -38.1861 50.1537
    -9.67972 -51.0533 79.0968
    -9.6746 -51.0464 76.9308
    -9.67386 57.9886 23.7795
    -9.66606 -51.52 84.9317
    -9.66185 -23.9705 6.71419
    -9.64363 45.5798 69.1474
    -9.4645 54.7817 1.79916
    -9.61998 -26.1861 6.33936
    -9.61559 -36.3607 46.2438
    -9.60876 56.972 25.4774
    -9.58925 59.6347 17.931
    -9.58175 -29.3361 0.332965
    -9.57584 -48.2186 85.769
    -9.12937 -56.0486 92.9287
    -9.39085 54.1442 24.0605
    -9.55219 -54.4439 92.5182
    -9.54865 -18.9949 31.8338
    -9.53951 -37.0566 57.7869
    -9.52805 -42.7422 66.7431
    -9.44135 -11.1343 37.6714
    -9.51659 54.3639 3.59468
    -9.51488 -49.6763 69.3193
    -9.41579 -29.9776 4.30392
    -9.49449 -30.6397 1.82794
    -9.48977 -34.3539 44.5152
    -9.30502 62.3389 9.42992
    -9.4783 21.8512 48.4598
    -9.46904 60.3697 13.9269
    -9.45741 -31.4383 42.43
    -9.43953 54.815 53.0367
    -9.42027 -50.8423 70.3342
    -9.41984 -30.1717 0.930881
    -9.36882 55.8038 1.0385
    -9.36419 -40.3494 65.2243
    -9.35053 56.3763 23.2418
    -9.34078 -51.1774 81.058
    -9.3353 -24.3442 5.02051
    -9.32298 -55.555 93.2407
    -9.297 -28.829 0.600309
    -9.26772 -30.2979 3.57385
    -9.29763 -24.5505 1.45411
    -9.04343 -51.506 85.3331
    -8.89845 -55.6101 92.5564
    -9.2864 57.5696 7.12816
    -9.27933 -38.6608 51.4905
    -9.27104 59.0649 8.2886
    -9.26519 -43.8161 71.1423
    -9.25568 -37.3914 59.5845
    -9.24495 60.7674 10.5156
    -9.23772 -9.21338 41.9179
    -9.22788 54.3741 2.424
    -9.11284 -27.1287 4.22769
    -9.18521 -43.0597 70.8601
    -9.18496 -38.9337 63.4408
    -9.17838 61.0205 1.6403
    -9.17058 57.3595 1.33526
    -9.15717 -36.476 76.3621
    -9.14936 -48.5678 68.2942
    -9.08226 -24.5159 2.95941
    -9.14644 -51.7931 71.389
    -9.10183 -26.7272 1.23227
    -9.08054 -29.8748 1.3646
    -9.1301 -37.9976 61.5608
    -9.10907 -8.83359 42.2648
    -9.07792 -50.9321 83.4989
    -9.06639 28.0094 47.1284
    -9.06353 54.1859 57.981
    -9.0589 55.9245 6.25107
    -9.05695 50.3135 66.194
    -9.04646 55.3073 24.9668
    -9.04282 -17.475 32.5048
    -9.02891 -21.7783 75.2317
    -9.02549 -52.7202 87.7173
    -9.02549 55.2795 5.54345
    -9.02135 24.6669 48.6495
    -8.92439 62.1126 6.48297
    -9.00364 -14.911 33.4123
    -8.90824 -28.5785 2.59648
    -8.90138 -28.1626 1.85635
    -8.9722 -8.21395 42.3507
    -8.95259 -51.4098 84.1419
    -8.95063 -44.8549 69.6295
    -8.87715 -26.4505 2.72945
    -8.92942 60.8108 8.67923
    -8.92674 54.1018 29.3103
    -8.9265 -9.10962 73.3344
    -8.89699 -12.7484 73.9718
    -8.88138 11.6329 70.4883
    -8.8709 -54.24 89.8597
    -8.70729 -55.5143 91.8619
    -8.8509 58.3324 7.03038
    -8.8492 61.3687 2.53007
    -8.84895 53.2827 62.5874
    -8.84798 -17.4792 74.6275
    -8.82432 -41.4135 74.2188
    -8.82189 -44.1192 69.2301
    -8.81652 54.4124 3.75244
    -8.80799 51.8175 26.2179
    -8.74368 61.7258 4.07656
    -8.79213 60.1678 1.69596
    -8.77385 6.52004 70.102
    -8.76336 -39.0746 52.8026
    -8.75434 -1.84587 70.5431
    -8.75361 57.5709 1.55057
    -8.53473 -56.0919 93.5406
    -8.74313 -26.4935 76.0676
    -8.72898 56.0691 1.07069
    -8.65985 -55.0401 93.5225
    -8.67802 -44.8783 64.9629
    -8.67622 -5.20724 41.3526
    -8.67266 55.3751 1.46961
    -8.65242 -52.6041 87.8902
    -8.63754 54.309 26.6378
    -8.63437 52.6926 32.7753
    -8.37422 60.7209 5.88614
    -8.58602 54.5435 2.5524
    -8.6117 -42.9151 74.972
    -8.59341 -56.2412 93.2739
    -8.58756 12.2371 42.1975
    -8.5474 -54.5884 91.1009
    -8.57195 -45.7046 68.7519
    -8.57073 -46.8541 83.0382
    -8.56805 -45.3445 81.5111
    -8.40077 -55.9061 92.9425
    -8.56415 -5.81193 71.9274
    -8.54513 -52.1252 75.0174
    -8.49948 -12.9552 37.8674
    -8.49075 -51.0447 91.5117
    -8.45125 -44.8636 68.2111
    -8.44735 2.23236 70.2542
    -8.44694 -19.3476 34.3029
    -8.44564 48.598 28.5883
    -8.43833 53.6621 26.6554
    -8.41516 -40.464 78.4058
    -8.41443 -47.4386 84.1004
    -8.34472 60.2203 2.65804
    -8.38517 52.0472 37.3602
    -8.37566 -52.9245 72.5956
    -8.37005 -44.1777 80.582
    -8.36713 16.586 70.6885
    -8.35225 -47.1752 83.7095
    -8.34933 14.8981 43.4896
    -8.31545 -2.36598 39.9832
    -8.30836 55.7465 5.48736
    -8.28129 58.7891 5.63464
    -8.25984 56.5475 6.13159
    -8.25423 -51.3832 82.88
    -8.21662 60.5961 4.29574
    -8.2474 53.6404 45.6022
    -8.23935 -42.9397 79.7718
    -8.11543 57.0725 2.40698
    -8.21741 54.7394 3.84461
    -8.20985 54.4483 48.8014
    -8.20473 -38.7837 47.6127
    -8.10244 55.7034 4.32429
    -8.17924 -55.7417 92.1505
    -8.17571 52.4419 41.6581
    -7.79341 -51.4798 83.8042
    -8.04414 56.1497 1.42653
    -8.15498 21.8249 46.8234
    -8.14182 -39.3699 54.8889
    -8.13913 43.6922 32.1179
    -8.13279 -42.9897 63.1836
    -8.1267 18.2068 44.9724
    -8.11719 -52.0116 87.9004
    -8.10768 39.4765 36.1137
    -8.095 27.9051 70.8197
    -8.08842 -53.4051 77.6781
    -8.07866 -30.5202 77.6979
    -8.07671 -34.2859 43.9153
    -8.02772 58.898 4.07077
    -8.06867 36.2485 39.743
    -8.04599 31.4463 45.077
    -8.04526 33.0864 43.2377
    -8.00299 55.038 2.7242
    -7.97747 -52.9564 79.4796
    -7.96547 -10.7694 40.6816
    -7.96528 -48.1628 89.4332
    -7.9495 -19.7777 36.4398
    -7.93291 55.9617 3.19843
    -7.92261 24.719 47.0755
    -7.90139 52.6904 29.3332
    -7.86165 -36.479 45.3374
    -7.85799 -31.1752 41.8595
    -7.83702 -41.723 61.4023
    -7.83629 -52.1642 85.7427
    -7.83336 -52.9859 80.2263
    -7.79776 -47.1587 67.5166
    -7.78679 -39.8883 57.0749
    -7.77535 0.519135 38.9925
    -7.77167 -34.3814 79.6179
    -7.76387 -39.9634 48.8446
    -7.74119 -54.4965 93.1715
    -7.71597 -14.7133 36.8694
    -7.71339 54.4024 53.5275
    -7.71047 -40.7425 59.2865
    -7.602 -55.9255 92.2791
    -7.68535 -46.3567 66.9897
    -7.67681 -17.3842 35.4455
    -7.66072 26.1601 70.8348
    -7.64905 -10.6905 40.8872
    -7.63731 -54.0559 73.8021
    -7.60854 51.0318 29.0421
    -7.59732 -51.7016 84.3998
    -7.58291 -9.93332 41.2994
    -7.56782 -56.3574 92.5185
    -7.55051 -53.9857 90.162
    -7.48808 -47.1292 63.5835
    -7.47625 -26.8199 39.5027
    -7.43883 -54.4807 76.0008
    -7.42712 -52.0915 85.8643
    -7.42566 -55.4197 77.8944
    -7.30686 -54.7941 90.116
    -7.39177 3.1587 38.5233
    -7.36787 22.1677 70.8826
    -7.36055 -52.9947 81.2675
    -7.34397 -55.0054 92.9798
    -7.31691 34.4222 72.2854
    -7.31374 -40.7769 50.1545
    -7.25936 -38.3275 81.1604
    -7.25741 -47.0306 87.5622
    -7.24278 54.063 58.7128
    -7.23546 40.8903 71.6972
    -7.21084 -55.6228 92.7638
    -7.20714 -12.6371 40.0415
    -7.2023 -34.0106 43.6044
    -7.12696 6.04528 38.2724
    -7.12246 -17.3776 37.9804
    -7.11525 27.8056 46.1099
    -7.07845 -7.34627 39.9912
    -7.04893 -51.5758 91.9311
    -7.04478 -56.3178 76.6952
    -6.94651 50.6063 32.7618
    -6.92627 -45.323 61.8232
    -6.90531 -51.6409 85.9402
    -6.89238 45.2779 69.867
    -6.87312 -31.1137 41.553
    -6.8463 -40.8344 82.7439
    -6.84093 47.1974 32.6338
    -6.83666 -12.6014 40.2091
    -6.82751 -14.595 38.9008
    -6.82142 -52.7928 82.7198
    -6.8085 -17.3954 38.1945
    -6.7985 -56.1624 78.1822
    -6.79488 -21.523 37.4822
    -6.79046 -51.0603 68.8109
    -6.7273 -41.3399 52.3956
    -6.53283 -55.1274 90.3629
    -6.69463 -52.3193 69.7838
    -6.64318 74.3017 69.6183
    -6.634 -27.5403 39.6598
    -6.63359 -11.8244 40.2162
    -6.62001 49.8831 37.6062
    -6.61172 -54.7128 79.6864
    -6.58075 -42.9834 84.4152
    -6.57905 -52.4329 88.3505
    -6.53052 -45.1633 85.3572
    -6.52247 -53.6797 70.649
    -6.52053 79.2041 69.3066
    -6.4976 -55.9852 75.0342
    -6.48712 -41.9256 54.9835
    -6.48614 -43.8768 60.0175
    -6.41667 -52.9982 83.6203
    -6.46859 -55.5431 79.7176
    -6.44903 -14.6459 39.0612
    -6.44786 9.98647 38.4489
    -6.40565 -54.5028 80.5052
    -6.42909 51.194 46.6415
    -6.42226 49.6736 41.5708
    -6.42128 69.609 69.6321
    -6.41909 -48.1516 65.5017
    -6.2956 -53.2399 88.285
    -6.39739 -55.535 90.4429
    -6.39568 -57.3365 77.3716
    -6.39153 74.4865 65.9965
    -6.38641 -46.4864 85.6937
    -6.37642 -52.6548 91.8901
    -6.36544 -42.8997 57.5482
    -6.3118 -56.6908 79.9086
    -6.29156 -4.80901 38.6981
    -6.16397 -54.5777 81.6562
    -6.28034 25.4754 44.2194
    -6.24937 69.7061 66.305
    -6.2367 79.4462 65.6832
    -6.23109 83.6174 68.895
    -6.22889 -46.127 85.5015
    -6.22621 -53.8369 91.3776
    -6.2228 -49.0969 66.4027
    -6.21548 42.8444 37.1295
    -6.2106 -55.5109 90.6417
    -6.17744 -50.1833 67.6922
    -6.14452 -52.9408 85.2304
    -6.10307 14.0028 39.3855
    -6.10234 21.7642 42.4291
    -6.09429 52.9199 64.6361
    -5.73044 -53.2035 85.2495
    -6.08625 -57.0571 78.6915
    -6.0704 -54.2588 82.6617
    -5.7355 -58.104 78.6146
    -5.98676 83.9556 65.5154
    -5.90688 -55.927 80.9416
    -5.97921 -14.0544 39.275
    -5.96018 47.602 37.5945
    -5.95872 50.2147 67.1323
    -5.94848 -8.72459 74.0939
    -5.94774 44.4013 37.4614
    -5.94019 17.8481 40.8246
    -5.06898 -57.5226 75.6092
    -5.91531 28.2506 44.8578
    -5.90556 -39.0159 46.0084
    -5.89434 -56.0515 71.8394
    -5.87459 -31.0523 41.3223
    -5.85972 -36.5036 44.6846
    -5.85435 39.9878 40.4301
    -5.84363 -25.3867 78.3102
    -5.81705 -5.63344 73.4585
    -5.81574 -21.7879 37.3841
    -4.68437 -58.5194 73.0358
    -5.76194 -20.8044 76.2251
    -5.75487 51.9667 50.3464
    -5.74653 -9.81606 38.6123
    -5.74097 -33.5907 43.1221
    -5.73317 -40.5135 47.194
    -5.73292 87.5308 68.6961
    -5.72707 -53.9691 88.8224
    -5.69293 -52.1942 86.4447
    -5.66977 64.9838 69.4178
    -5.66587 -12.0333 74.5897
    -5.66099 64.7734 66.5807
    -5.6449 -55.446 82.5849
    -5.63075 12.0206 72.0954
    -5.53211 -53.0751 86.5842
    -5.49399 -58.1234 78.534
    -5.59832 -1.63763 72.2898
    -5.59174 -41.9244 48.531
    -5.5832 -29.0835 79.6876
    -5.55882 -57.3604 74.3319
    -5.54893 -28.4211 39.4789
    -5.54614 -16.5723 75.3636
    -5.54391 -17.5912 37.9635
    -5.52785 87.9299 65.6793
    -4.77421 -58.417 76.6093
    -5.50639 -52.6758 69.3573
    -5.48518 6.62538 71.2442
    -5.45543 -54.5714 88.9545
    -4.67335 -53.6644 87.7864
    -5.44763 50.2108 67.4925
    -5.423 -58.3295 80.196
    -5.41569 -54.2939 70.1901
    -5.40447 -51.4376 68.5088
    -5.36643 73.8816 72.579
    -5.36521 16.5477 72.322
    -5.35741 -32.6499 81.4067
    -5.34229 35.9093 43.8107
    -5.32668 -49.1208 90.7389
    -5.32303 42.3375 40.9854
    -5.32132 -49.5895 62.4047
    -5.21544 -53.7225 85.4436
    -5.27597 2.37622 71.4378
    -5.25109 -36.2205 83.3684
    -5.24061 -42.8861 50.8009
    -5.23573 78.7603 72.2656
    -4.70119 -58.7538 77.3872
    -5.20134 -58.1634 78.7221
    -5.17404 -47.8056 60.5138
    -5.16453 -2.0724 37.625
    -5.16356 -54.9815 69.2603
    -5.16282 -54.4756 84.3767
    -5.16161 -52.7762 90.1918
    -4.62502 -59.6446 80.3216
    -5.14283 -54.6345 89.092
    -5.12308 59.2902 66.9994
    -5.11625 -53.8945 68.4703
    -4.95611 -59.0779 79.0689
    -5.10186 27.5559 72.7472
    -5.09748 34.2473 73.4075
    -5.08162 45.6483 41.3555
    -5.0748 22.4691 72.269
    -5.06065 -50.4746 67.4154
    -5.03725 69.2564 72.3776
    -5.02616 -13.2585 37.774
    -5.02432 -43.6347 53.6631
    -5.02067 -39.3809 85.2925
    -5.01676 59.5574 69.1913
    -4.2897 -59.1637 81.247
    -4.97848 -56.0834 70.8794
    -4.96166 -46.0216 58.7045
    -4.86335 -58.6411 78.9817
    -4.93605 91.0599 68.6848
    -4.93361 -42.027 87.2496
    -4.92459 -58.3338 72.1976
    -4.9185 -54.9491 68.9523
    -4.9596 -57.1988 82.3492
    -4.90557 -56.7308 69.9645
    -4.89948 52.7506 54.9752
    -4.88948 83.1728 71.7258
    -4.61836 -58.394 77.9012
    -4.86973 50.1284 67.8743
    -4.86388 -44.7188 56.4085
    -4.84559 -57.5487 70.7058
    -4.84242 33.449 44.6778
    -4.83852 45.0597 70.7767
    -4.81267 -52.6997 67.8302
    -4.80219 55.2103 67.0796
    -4.79072 74.4956 62.9651
    -4.77341 -54.4044 68.1384
    -4.7678 -50.7477 90.8038
    -4.7622 91.4366 66.0189
    -4.75805 -48.8626 64.6093
    -4.74196 79.593 62.7115
    -4.71977 -48.2372 89.8514
    -4.68197 69.4798 63.583
    -4.66612 -49.677 65.7614
    -4.65125 40.3287 72.4285
    -4.61443 52.8945 60.1656
    -4.60672 -7.64138 37.3477
    -4.60478 -22.3937 37.0983
    -4.5959 -37.3156 44.0753
    -4.59029 -56.567 69.5246
    -4.58322 84.2062 62.8224
    -4.57425 -56.604 79.1163
    -4.56322 -47.6595 88.6575
    -4.53396 -55.0522 69.0338
    -4.51992 -17.6637 36.8718
    -4.47666 -59.7332 70.2557
    -4.46959 -58.6798 74.1071
    -4.35673 -54.1123 87.6772
    -4.45593 -39.3604 45.3545
    -4.43033 87.0611 71.3147
    -4.42082 52.1696 65.314
    -4.41862 55.0705 69.0099
    -4.41667 -34.536 42.5298
    -4.38177 -54.8649 86.0743
    -4.38473 -53.9391 67.6393
    -3.49273 -56.323 85.0977
    -4.28941 -54.6535 68.4936
    -4.08843 -61.5094 71.2885
    -4.32231 39.8188 44.2911
    -4.3206 52.7553 54.8911
    -4.30865 64.374 64.4047
    -4.30817 51.0145 50.8438
    -4.27755 -59.354 79.0153
    -3.97166 -56.7768 78.3528
    -4.28134 -54.2812 88.0828
    -4.2789 -47.3535 88.6734
    -4.18924 -58.1439 69.2461
    -4.27427 -51.3954 67.2554
    -4.24891 64.8658 71.9174
    -4.00001 -57.0482 79.4637
    -3.82674 -49.2713 89.8509
    -4.1743 -60.0678 72.6992
    -4.16308 52.9625 60.3594
    -4.16235 44.0568 44.75
    -4.15333 -52.0774 89.3018
    -4.13699 88.245 63.3186
    -4.13577 -58.8137 81.7732
    -4.11187 -56.5145 69.284
    -4.03423 -58.3559 82.7236
    -3.91726 -62.5488 69.5122
    -4.08383 -53.8243 69.4137
    -4.0514 -58.4858 75.4324
    -4.02068 -40.7093 46.64
    -4.01263 -55.3946 85.2911
    -4.00873 -32.0991 40.7581
    -3.99898 33.2854 44.2918
    -3.99678 0.375027 37.0861
    -3.8108 -59.0299 76.6966
    -3.98264 52.2615 65.5091
    -3.97581 58.9093 65.4052
    -3.95606 -42.2979 48.0131
    -3.94509 -45.6573 89.1667
    -3.64031 -58.7761 77.5226
    -3.88925 3.81366 36.8157
    -3.87061 -59.9791 79.6627
    -3.87413 94.3795 68.7439
    -3.86364 55.4022 65.5603
    -3.82564 -60.1716 68.4865
    -3.84682 -60.2373 73.7126
    -3.8317 90.6843 71.0323
    -3.55988 -59.2601 78.9301
    -3.61587 -54.5296 86.9802
    -3.74709 -64.275 70.5427
    -3.71641 -62.6306 68.4237
    -3.71954 59.6072 71.3166
    -3.71856 -56.3899 67.5773
    -3.71222 94.5514 66.5749
    -3.68589 48.0772 48.3283
    -3.67491 -43.5835 50.2679
    -3.50214 -51.6391 88.9842
    -3.49739 -60.5685 80.514
    -2.79097 -53.0745 66.8993
    -3.57182 -59.8513 74.6861
    -3.4868 -62.3549 72.7853
    -3.45337 -56.6586 67.6979
    -3.5903 8.36517 36.7274
    -3.58274 45.1299 71.6492
    -3.34831 -56.643 69.7802
    -3.51199 -58.5228 68.9928
    -3.52568 -62.1263 67.8404
    -3.32054 -55.2278 66.7812
    -3.24799 -66.07 68.762
    -3.23776 -48.8763 89.6776
    -3.45326 50.5317 70.5748
    -3.43936 -54.4712 68.5061
    -2.85341 -59.4132 77.6451
    -3.42948 -59.9538 79.1315
    -3.41961 91.7487 64.057
    -3.39937 39.2378 45.5305
    -3.22604 -66.7528 69.9724
    -3.02882 -56.9617 78.1442
    -3.33402 54.8589 70.7151
    -3.08149 -57.2789 79.3577
    -3.2994 -44.7483 52.9718
    -3.2916 -60.3628 68.1428
    -3.26526 -54.865 86.8197
    -3.26112 -53.2966 69.8162
    -3.33993 -53.5444 69.9972
    -3.06185 -65.5468 67.8567
    -3.24307 -59.2968 75.941
    -3.17107 -65.6265 71.3097
    -3.16894 -60.3492 81.5028
    -3.16212 43.614 46.48
    -3.1231 -50.6095 65.0655
    -3.09559 -59.0686 78.4906
    -3.13907 -58.0434 66.6493
    -3.1053 13.3695 37.3919
    -2.98138 -60.6447 79.5717
    -3.07994 -51.5978 88.9182
    -3.06629 -62.278 67.6553
    -3.06068 26.0587 41.4911
    -2.9028 -60.016 78.0115
    -3.05019 17.5636 38.5045
    -3.04226 -12.4696 36.5058
    -3.03423 -58.8045 77.9289
    -3.03435 -32.6646 40.6881
    -3.03361 21.9568 39.958
    -3.03215 -62.0992 74.2858
    -2.87928 -57.3203 66.0115
    -3.00801 94.2044 70.706
    -2.87563 -57.9234 67.018
    -2.9807 -30.0438 39.2138
    -2.94388 29.0535 42.4906
    -2.93071 -51.3271 66.5498
    -2.92242 -50.2028 63.6654
    -2.91169 -5.69074 74.0274
    -2.90682 -49.7663 59.5028
    -2.87731 -60.4182 68.2418
    -2.87585 -46.2521 55.5033
    -2.86439 -8.44516 74.4699
    -2.8639 -64.314 67.4293
    -2.84147 -63.8215 73.2963
    -2.78622 -68.3318 70.0716
    -2.82537 -51.5734 61.5423
    -2.82294 -60.5316 75.9705
    -2.74355 -59.2115 66.1781
    -2.81318 -58.7886 83.5296
    -2.80709 -47.7926 57.6977
    -2.70993 -66.1532 72.0618
    -2.79514 -59.7501 82.118
    -2.79863 -58.9842 69.1796
    -2.68016 -59.7202 77.2012
    -2.751 96.7506 68.6987
    -2.73979 33.3276 43.8736
    -2.73101 -11.4537 74.8264
    -2.62466 -57.2573 78.661
    -2.61574 -67.907 68.5392
    -2.71004 -35.3644 42.2628
    -2.70248 -54.3471 68.5332
    -2.68956 -48.1118 89.6999
    -2.65591 -60.7949 76.9873
    -2.63957 -15.8298 75.428
    -2.63664 -56.8484 85.4481
    -2.63128 -38.0966 43.7427
    -2.60981 -60.6702 78.296
    -2.59251 96.6799 67.1055
    -2.5769 -62.325 67.7039
    -2.56617 -54.5224 87.2337
    -2.56178 94.7089 65.0614
    -2.54935 -66.2584 67.5444
    -2.54642 -51.4968 89.036
    -2.53618 -5.82777 36.7469
    -2.52716 -54.697 66.292
    -2.5235 -1.69542 73.0808
    -2.52802 -60.9724 64.5568
    -2.51521 2.52009 72.2944
    -2.51493 -17.6712 35.8303
    -2.48132 -20.0415 76.449
    -2.47498 -62.1524 75.2037
    -2.47303 73.2135 74.2244
    -2.36296 -68.7497 71.1733
    -2.43349 -23.4823 36.763
    -2.41353 -39.8959 45.0911
    -2.2009 -61.2769 80.1726
    -2.39353 78.1261 73.9935
    -2.36452 16.6335 72.844
    -2.35232 -55.1873 69.2013
    -2.25146 -68.9109 69.1912
    -2.32331 -64.4013 67.3452
    -2.32063 -24.9482 78.9029
    -2.29405 68.7061 73.8896
    -2.17404 -65.4137 73.4527
    -2.26966 -54.5073 68.6961
    -2.26088 -56.7833 68.6887
    -2.2326 -53.9818 71.7277
    -2.2326 27.7551 73.3119
    -2.23065 12.2969 72.5973
    -2.22016 7.06161 71.963
    -2.21919 22.3889 72.9186
    -2.21748 -52.5056 71.866
    -2.20602 -58.3397 67.6685
    -2.20435 -56.7203 65.4833
    -2.14787 -61.8675 76.3786
    -2.17018 -62.5657 68.2086
    -2.16774 -52.2773 71.5434
    -2.16091 -27.9784 80.3757
    -2.15896 82.7159 73.2995
    -1.70885 -60.1218 63.4974
    -2.14335 39.266 45.3852
    -2.12517 -62.5073 63.817
    -1.45331 -68.1249 67.2617
    -2.12385 96.7881 70.1406
    -2.11409 -59.7771 66.1911
    -2.09922 79.4265 61.2409
    -1.94272 -69.6764 70.5932
    -2.09556 74.3283 61.4872
    -1.81737 -57.4335 67.1077
    -1.98667 -61.2836 78.4784
    -2.06654 -62.6364 64.0909
    -2.04855 -59.212 68.0578
    -2.05874 84.1616 61.4706
    -2.0546 -41.0961 46.6061
    -2.01913 -61.3143 64.6062
    -2.04923 69.2781 62.3391
    -2.03972 33.4339 73.7084
    -2.03094 -31.5114 82.472
    -1.98339 -34.8647 84.9334
    -1.9411 -60.8442 66.4722
    -1.97486 43.6291 46.5293
    -1.91442 -57.4523 69.1284
    -1.6494 -69.5714 69.562
    -1.91367 -55.4323 69.7148
    -1.9317 -61.5157 65.2506
    -1.92219 -66.5878 67.1701
    -1.90976 47.6885 48.7139
    -1.90098 -41.6242 88.2888
    -1.89293 64.5371 73.3924
    -1.89049 86.6412 72.8104
    -1.68967 -69.7816 71.3227
    -1.88513 64.1319 63.3477
    -1.54371 -64.7099 68.1236
    -1.86538 -56.259 67.8482
    -1.85026 88.3569 62.1989
    -1.84489 -57.2531 70.7906
    -1.83368 50.35 52.239
    -1.67451 -70.7919 70.5007
    -1.8138 -60.2574 65.425
    -1.78029 -62.7999 76.6082
    -1.791 52.5236 55.8623
    -1.78735 -42.6079 48.0955
    -1.78686 50.6758 72.1357
    -1.77369 -38.3694 86.957
    -1.70623 -59.0657 66.536
    -1.66936 -62.189 65.6078
    -1.1907 -69.2907 72.2607
    -1.73638 -44.8922 89.4744
    -1.73126 53.0569 61.1687
    -1.72712 58.6942 64.5361
    -1.54036 -66.4376 74.1184
    -1.70469 59.5155 72.7245
    -1.68518 39.8049 73.3644
    -1.67201 45.0811 72.5319
    -1.55147 -70.9583 69.8097
    -1.64982 55.2844 64.7705
    -1.63323 -61.7309 68.953
    -1.6191 96.6689 65.976
    -1.38572 -63.2611 64.5748
    -1.61325 -61.1212 65.2318
    -1.61325 54.9771 72.1871
    -1.08242 -68.9818 67.945
    -1.58789 90.413 72.5214
    -1.58691 -59.0029 69.8514
    -1.5674 52.1922 64.799
    -1.49937 -43.9244 50.3078
    -1.48864 91.9835 63.3213
    -1.45841 -66.642 67.3176
    -1.43353 -60.9705 80.3879
    -1.41622 -47.858 90.0513
    -1.40379 98.6189 68.7836
    -1.31418 -62.6218 64.0279
    -1.38647 -52.659 66.8068
    -1.22824 -63.6267 65.0582
    -1.38184 -59.0481 83.3645
    -1.26032 -70.1224 69.2531
    -1.3499 -51.3483 65.9031
    -1.27484 -70.5718 69.1837
    -1.27505 -64.2023 63.3254
    -1.29235 -59.7657 82.159
    -1.28089 -54.2027 66.1818
    -1.27797 -62.4121 64.7568
    -1.2748 98.4965 67.8407
    -0.883191 -71.5768 69.7189
    -0.80063 -51.5632 64.3068
    -1.21091 94.0854 71.9791
    -1.18116 -57.0998 85.5681
    -1.18177 -63.5841 62.9012
    -1.15726 -51.4832 89.2349
    -1.12678 -70.7254 71.5501
    -1.06361 -61.5706 78.6349
    -1.11581 -45.2786 52.7343
    -1.09362 -54.7835 87.7383
    -1.0785 94.925 64.5508
    -1.03803 -56.3085 65.2238
    -0.755936 -71.8524 70.6411
    -1.01998 98.7535 69.6185
    -0.667849 -70.708 70.1629
    -0.976823 -63.2736 77.04
    -0.831923 -62.236 62.3811
    -0.720713 -51.7599 72.028
    -0.565023 -71.9876 70.1068
    -0.632972 -59.4441 63.3352
    -0.539049 -52.0317 72.305
    -0.788147 -66.33 75.0608
    -0.541229 -63.7292 63.9676
    -0.809549 96.7611 70.9718
    -0.791993 -53.6802 72.071
    -0.317867 -69.2825 67.7235
    -0.698358 -46.8795 54.8462
    -0.215961 -69.6788 68.3327
    -0.548429 -69.4469 72.649
    -0.656417 -56.9896 70.7121
    -0.646664 -60.8664 80.711
    -0.634715 -58.7654 69.9035
    -0.626425 -57.3419 69.2749
    -0.620085 98.4999 67.2262
    -0.618134 -59.3836 67.9311
    -0.615696 -51.4719 63.0134
    -0.524669 -70.4395 69.9153
    -0.123497 -61.0179 62.4122
    -0.598871 -60.6408 69.0799
    -0.598627 -62.6635 68.5085
    -0.5601 -61.2694 65.8348
    -0.552541 -64.7595 68.175
    -0.305497 -70.3291 68.6021
    -0.532303 -66.9402 67.6007
    -0.529864 -55.1703 70.2388
    -0.522305 -48.7877 56.9188
    -0.520842 -68.4915 67.3247
    -0.309549 -63.1545 64.5571
    -0.370783 -64.1769 63.815
    -0.281258 -64.1816 64.3714
    -0.389512 96.8889 65.6578
    -0.484998 -50.7594 58.8976
    -0.431901 -64.7857 62.8108
    -0.47183 -52.4441 61.1275
    -0.0426218 -64.5166 62.2503
    -0.217964 -63.9786 63.2668
    -0.288911 -61.3826 78.958
    -0.339913 -51.9367 65.6246
    -0.321302 -71.5958 69.6541
    0.01845 -62.467 61.9528
    -0.0539283 98.9921 69.9879
    -0.188244 -53.8362 65.5274
    0.184597 100.023 69.1885
    -0.168249 -63.4896 77.1878
    -0.0265507 -70.8656 68.9248
    -0.126065 -55.982 65.2884
    0.381745 99.8546 68.3175
    -0.0747837 -66.217 75.4356
    0.0452424 -59.1124 63.328
    0.2188 -72.0894 70.6736
    -0.288481 -71.4678 71.4799
    0.0355419 -69.0411 73.1639
    0.190694 -63.9805 63.6393
    0.034625 -59.2126 67.6141
    0.135581 -55.5981 69.929
    0.0724158 -61.0837 65.4993
    0.116208 98.6712 67.113
    -0.0908843 -63.2324 62.0036
    0.797656 -68.5573 67.3526
    0.642757 -67.2174 67.8167
    0.645397 -64.6531 68.1897
    1.08438 -69.7294 68.1462
    1.51451 -69.2596 67.6777
    1.48566 -64.7827 62.5577
    0.635691 -64.6949 62.6886
    1.01953 -63.3772 61.954
    0.635691 -63.3965 77.108
    0.658602 -61.1243 79.132
    0.765134 -59.3113 63.2569
    0.635691 -53.7416 65.6664
    0.635935 -51.9277 62.733
    0.635935 -51.8601 64.3025
    0.636179 -58.545 83.1158
    0.636422 -56.8567 85.3237
    0.636422 -54.5829 87.5066
    0.636422 -51.4532 89.1386
    0.636422 -51.3061 58.4916
    0.636422 -49.205 56.5606
    0.636422 -47.7409 90.123
    0.636422 -47.1352 54.5412
    0.636422 -45.5669 52.606
    0.636422 -45.078 89.7097
    0.636422 -41.811 88.4617
    0.636422 -38.6165 87.1972
    0.636422 -34.7511 84.6378
    0.636422 -31.5249 82.4713
    0.636422 -27.8592 80.4177
    0.636422 -24.6617 78.9971
    0.636422 -19.5426 76.4124
    0.636422 -15.5363 75.2363
    0.636422 -11.1174 74.7589
    0.636422 1.57716 36.4126
    0.636422 6.19256 36.4875
    0.636422 7.36177 72.4619
    0.636422 12.4878 72.974
    0.636422 13.2747 37.1719
    0.636422 16.7191 73.3661
    0.636422 17.5787 38.0154
    0.636422 22.3084 73.5682
    0.636422 22.4569 39.2755
    0.636422 26.4447 40.6684
    0.636422 27.9541 73.8769
    0.636422 29.6066 41.8166
    0.636422 32.8306 74.0206
    0.636422 33.5614 43.305
    0.636422 39.1256 45.2638
    0.636422 39.2931 73.6577
    0.636422 43.3928 46.4761
    0.636422 44.6483 72.9067
    0.636422 47.5551 49.0255
    0.636422 49.4971 53.2954
    0.636422 50.5814 72.5307
    0.636422 51.2491 56.9364
    0.636422 51.884 64.6603
    0.636422 52.2471 61.008
    0.636422 54.964 72.6758
    0.636422 55.0164 64.5347
    0.636422 58.4211 64.2314
    0.636422 59.405 73.1705
    0.636422 64.0751 62.967
    0.636422 64.3355 73.8223
    0.636422 68.4244 74.3049
    0.636422 69.2552 61.9873
    0.636422 72.8857 74.6572
    0.636422 74.3051 61.0619
    0.636422 77.8327 74.4492
    0.636422 79.2422 60.8193
    0.636422 82.545 73.696
    0.636422 84.0099 61.0853
    0.636422 86.4869 73.181
    0.636422 88.313 61.8971
    0.636422 90.2964 72.8916
    0.636422 92.0454 63.1533
    0.636422 94.0169 72.2842
    0.636422 95.0213 64.481
    0.636422 96.7274 71.1418
    0.871318 99.7992 68.2584
    1.08152 100.052 69.215
    0.808758 100.128 68.9043
    0.636423 -44.0819 50.4571
    0.636423 -42.7098 48.4369
    0.636423 -41.3777 46.9375
    0.636423 -40.2931 45.3381
    0.636423 -38.6662 43.9546
    0.636423 -36.0354 42.483
    0.636423 -33.2915 41.0105
    0.636423 -30.827 39.5645
    0.636423 -24.0141 36.4499
    0.636423 -17.5438 35.3448
    0.636423 -11.6973 36.2609
    0.636423 -8.29373 74.4921
    0.636423 -5.68074 74.1842
    0.636423 -2.92242 36.4216
    0.636423 -1.41817 73.5838
    0.636423 2.67078 72.9781
    0.636666 -59.3858 82.1565
    0.636666 -52.9438 60.8588
    0.636666 -52.0398 72.4253
    0.636666 -51.6048 72.25
    0.63691 -60.4036 81.029
    0.580187 -57.1017 68.9188
    0.63691 -53.6065 72.202
    0.63691 -52.1918 65.5773
    0.623361 -71.9989 70.1615
    1.22068 -71.0446 71.8288
    0.666854 -70.4946 68.5359
    0.663873 -66.0437 75.4957
    1.09294 -64.1045 63.674
    0.637154 -64.0938 64.1455
    0.637154 -63.8098 63.2382
    0.637154 -63.096 64.4103
    0.637154 -62.4986 68.3725
    0.637154 -60.4204 68.9704
    1.15206 -59.218 67.5639
    0.854677 -58.1053 70.1522
    0.637154 -55.8625 65.4571
    1.29386 -56.6537 69.3142
    1.34052 -62.4758 61.9732
    1.43636 -61.0156 62.43
    1.42781 -64.555 62.3436
    1.29759 -70.6598 68.7263
    1.55926 -71.5799 69.6368
    1.61616 -64.7109 62.8618
    1.35389 -63.237 64.4759
    1.48701 98.7476 67.2493
    1.23529 -61.1268 65.4742
    1.60922 -64.1926 63.8158
    1.45432 -63.9943 63.2575
    1.69497 -64.1553 64.4294
    1.26842 -68.6084 73.4991
    1.80332 -72.0109 70.1444
    1.50286 -72.0678 70.7699
    1.27089 -59.1577 63.3096
    1.33495 -66.1242 75.5094
    1.39891 -55.982 65.2884
    1.44109 -63.4896 77.1878
    1.46109 -53.8362 65.5274
    1.52132 98.813 70.0389
    1.54214 -61.3871 78.955
    1.90553 -70.5062 70.1401
    1.57691 -51.7051 64.3167
    1.61276 -51.9367 65.6246
    1.85682 -63.6829 64
    1.7773 -51.7325 72.0809
    1.74468 -52.4441 61.1275
    1.75784 -50.7594 58.8976
    1.76613 96.7772 65.6054
    2.24244 -70.8494 71.6329
    1.90329 -69.0396 72.9067
    1.79515 -48.7877 56.9188
    1.79539 -68.4915 67.3247
    1.80368 -55.1703 70.2388
    1.79178 -70.2209 68.735
    1.8071 -66.9402 67.6007
    1.82709 -64.7595 68.175
    1.83465 -61.2694 65.8348
    1.93148 -52.0333 72.2842
    1.87342 -62.6635 68.5085
    1.87367 -60.6408 69.0799
    1.88854 -51.4719 63.0134
    1.89269 -59.3836 67.9311
    1.90049 -57.3419 69.2749
    2.00705 -58.0205 70.267
    1.91951 -60.8664 80.711
    2.49422 -69.5583 69.0584
    1.9712 -46.8795 54.8462
    2.10751 -71.549 69.7575
    1.96187 -59.4247 63.3659
    2.05874 -66.1202 75.2229
    2.06606 -53.6802 72.071
    2.08239 96.7611 70.9718
    1.89654 -62.5229 62.214
    2.59 -62.6646 63.9593
    2.51539 -68.9652 68.1144
    2.24967 -63.2736 77.04
    2.47957 -63.6504 65.0446
    2.31634 -71.6749 70.4262
    2.45211 -63.514 62.897
    2.29283 98.7535 69.6185
    2.31087 -56.3085 65.2238
    2.27894 -61.5269 78.7194
    2.35135 94.925 64.5508
    2.36647 -54.7835 87.7383
    2.54812 -70.1139 69.2653
    2.38866 -45.2786 52.7343
    2.65022 -63.3587 64.5623
    2.55335 -70.6076 69.1879
    2.51334 -69.1381 72.3012
    2.43011 -51.4832 89.2349
    2.45401 -57.0998 85.5681
    2.48375 94.0854 71.9791
    2.49717 -51.3744 64.452
    2.59901 -71.2787 69.7658
    2.54594 -61.3452 62.8515
    2.54764 98.4965 67.8407
    2.83127 -61.556 65.0873
    2.55374 -54.2027 66.1818
    2.66171 -64.087 63.3852
    2.5652 -59.7657 82.159
    2.98054 -62.1196 65.6459
    2.62274 -51.3483 65.9031
    2.65469 -59.0481 83.3645
    2.65932 -52.659 66.8068
    2.6698 -68.173 67.2601
    2.67663 98.6189 68.7836
    2.68907 -47.858 90.0513
    2.70638 -60.9705 80.3879
    2.7215 -55.38 69.9004
    2.7332 -66.642 67.3176
    3.23152 -60.6921 66.6086
    2.76149 91.9835 63.3213
    2.89385 -68.0736 72.4514
    2.77222 -43.9244 50.3078
    2.89834 -70.8837 70.4267
    3.15067 -57.3503 69.1936
    2.80392 -64.6973 68.1279
    2.81391 -59.2636 68.0594
    2.82508 -65.7412 74.6397
    2.84025 52.1922 64.799
    2.87869 -70.5056 69.7502
    2.86073 90.413 72.5214
    2.86146 -59.0029 69.8514
    2.85807 -62.8268 68.639
    2.88609 54.9771 72.1871
    2.89194 96.6689 65.976
    3.03561 -59.8928 63.6341
    2.92267 55.2844 64.7705
    2.98555 -69.8041 71.2838
    2.94486 45.0811 72.5319
    2.95241 -64.5898 75.3807
    2.95802 39.8049 73.3644
    3.5002 -61.3408 64.5551
    2.97753 59.5155 72.7245
    3.02864 -58.03 67.093
    2.99996 58.6942 64.5361
    3.00411 53.0569 61.1687
    3.00923 -44.8922 89.4744
    3.03573 -60.9824 64.9425
    3.04654 -38.3694 86.957
    3.22622 -69.6705 70.3972
    3.0597 50.6758 72.1357
    3.06019 -42.6079 48.0955
    3.06385 52.5236 55.8623
    3.07726 -62.7566 76.6109
    3.10371 -58.288 66.7282
    3.25101 -61.2769 78.5399
    3.10652 50.35 52.239
    3.1192 -57.2531 70.7906
    3.1231 88.3569 62.1989
    3.13968 -56.259 67.8507
    3.14993 -64.5744 67.8124
    3.15797 64.1319 63.3477
    3.16334 86.6412 72.8104
    3.16577 64.5371 73.3924
    3.17382 -41.6242 88.2888
    3.1826 47.6885 48.7139
    3.48148 -56.7511 65.4724
    3.19699 -66.5878 67.1701
    3.2065 -61.5157 65.2506
    3.2065 -55.4763 69.6631
    3.44095 -62.491 63.87
    3.24771 43.6291 46.5293
    3.25624 -34.8647 84.9334
    3.30379 -31.5114 82.472
    3.31257 33.4339 73.7084
    3.32208 69.2781 62.3391
    3.32744 -41.0961 46.6061
    3.33159 84.1616 61.4706
    3.48599 -61.2572 80.1614
    3.33939 -59.1332 68.064
    3.3411 -62.6364 64.0909
    3.35719 -56.1239 67.6905
    3.36841 74.3283 61.4872
    3.37206 79.4265 61.2409
    3.38889 -59.7771 66.1911
    3.39669 96.7881 70.1406
    3.51673 -68.9192 69.1913
    3.72538 -67.8254 68.1622
    3.41205 -65.9521 73.1237
    3.4162 39.266 45.3852
    3.41669 -52.2773 71.5434
    3.41554 -61.8525 76.4388
    3.63522 -68.7628 71.1645
    3.4318 82.7159 73.2995
    3.43375 -27.9784 80.3757
    3.42352 -61.9777 68.5172
