    -13.1812 -46.5156 39.2558
    -12.9593 34.8775 45.4183
    -12.969 -69.3525 66.9456
    -13.1805 39.9468 11.4708
    -12.6198 37.5411 28.5657
    -13.1252 -73.2067 70.1094
    -13.328 -72.2912 68.2276
    -13.211 38.2305 0.0912496
    -12.6533 -71.7845 64.0978
    -13.0775 -69.2585 65.6102
    -13.1156 41.6755 0.135738
    -13.0674 3.87963 42.9251
    -12.5993 -71.2213 63.5117
    -13.2709 -3.90073 61.6492
    -13.0731 -46.7397 29.0023
    -13.276 -46.1834 49.9005
    -12.7131 37.0811 16.5619
    -12.7362 39.1551 6.62466
    -12.9703 -71.7825 66.7476
    -13.0231 4.99124 41.314
    -13.0391 44.5467 5.66629
    -12.9367 36.4987 1.07453
    -12.8115 39.352 -0.281547
    -12.8476 43.073 1.88222
    -12.9432 44.9095 7.57112
    -12.8993 32.3075 21.4223
    -12.7892 36.7584 3.35473
    -12.973 27.8633 22.4424
    -12.8434 40.2548 7.91383
    -12.9456 -46.8386 41.9651
    -12.3627 -69.5625 68.1733
    -13.003 -42.6744 25.2787
    -13.1191 -21.354 56.612
    -12.7824 14.9802 25.3621
    -12.8484 -28.8504 55.7402
    -12.9434 -38.4921 28.107
    -12.7996 -40.022 25.5048
    -12.4305 37.2654 4.93225
    -12.8654 -47.2174 45.671
    -12.818 37.2504 -0.193359
    -12.7372 -15.7102 36.2573
    -12.7783 8.65014 62.4616
    -12.4899 29.9513 56.2479
    -12.8278 -47.7783 49.3271
    -12.7274 17.3593 24.2474
    -12.7592 -0.0857112 43.6768
    -12.4928 -10.7203 38.3002
    -12.8182 -70.2177 63.6996
    -12.5087 34.1237 50.6991
    -12.7684 -68.7261 63.8868
    -12.952 -13.8747 60.0654
    -12.8035 -44.8878 54.7095
    -12.6225 44.445 11.1135
    -12.1447 -34.9659 29.2998
    -12.7048 34.2423 20.4294
    -12.2419 -77.2778 74.0822
    -12.245 -46.2627 22.9324
    -11.7863 -75.2971 72.1333
    -12.5255 -47.7602 52.5666
    -12.6204 -66.9488 64.2148
    -11.8495 45.3553 6.16243
    -12.6016 26.5412 58.2314
    -12.7817 -9.94111 61.6708
    -12.5699 -47.8554 29.4263
    -12.3785 -35.811 58.6552
    -12.5089 -31.804 56.9693
    -12.6009 -18.1557 35.0917
    -12.4397 38.3128 -0.821105
    -12.3747 42.6854 20.8419
    -12.3103 38.907 11.7935
    -12.1191 42.5546 25.4349
    -12.6205 -66.1958 61.4733
    -12.4073 -37.5179 58.734
    -12.3819 -48.1895 32.9376
    -11.9026 -71.8822 68.3873
    -12.3178 34.7838 19.7801
    -12.5919 -68.1581 59.0354
    -12.5374 -69.5722 60.356
    -12.2095 35.6985 44.6631
    -12.636 22.8734 22.7986
    -12.4513 5.55211 35.5355
    -12.2769 -66.8857 65.9133
    -12.5421 -5.25246 62.9192
    -12.0823 35.4097 36.2989
    -12.218 -23.3049 58.0698
    -11.8774 3.97882 35.8355
    -12.0673 -39.0207 23.8442
    -12.0616 -42.9249 58.2819
    -11.1816 45.0167 5.10979
    -12.3669 -65.9216 63.1761
    -11.648 -47.5321 56.5775
    -12.1493 -6.76748 39.0873
    -12.0132 36.6148 4.23635
    -10.8328 -71.5297 70.4197
    -12.3231 41.3239 0.324852
    -12.5121 8.51307 29.6816
    -12.2724 -65.8227 58.2306
    -11.9782 -40.3326 59.1576
    -12.3134 -40.5894 23.3483
    -12.3203 -49.0574 48.4617
    -12.245 36.188 17.2108
    -11.9784 26.5719 22.2122
    -12.1482 7.76629 63.8259
    -12.4834 -71.6951 64.9215
    -12.0098 35.4677 34.2905
    -11.8273 -24.9133 30.9082
    -11.467 1.23799 37.3434
    -11.8749 -67.7303 55.8355
    -12.3846 -0.859615 63.435
    -12.1993 -14.705 61.21
    -12.0271 -20.8384 33.3824
    -12.371 20.5344 60.7702
    -11.486 31.1673 57.0709
    -12.1 -47.5189 25.2998
    -12.3675 -70.7727 62.4841
    -11.4712 -31.1981 28.4475
    -11.349 36.3594 44.2598
    -12.2051 11.4879 63.3427
    -11.867 5.53829 32.9723
    -12.1808 -70.6771 59.3242
    -11.9048 -43.0875 21.5001
    -11.9314 42.134 26.4387
    -12.2525 -69.3357 57.7687
    -12.2521 11.5544 27.0135
    -11.4824 43.2827 2.20704
    -11.8506 -46.219 20.8754
    -11.981 45.4539 7.78118
    -11.4656 36.0648 0.34672
    -11.8628 -48.3234 38.9314
    -12.1449 -48.174 43.4623
    -11.8896 -71.6004 62.2656
    -11.4978 -72.4238 69.1671
    -12.0258 -37.9703 25.6156
    -11.9376 -0.636815 40.7858
    -12.1344 43.7635 17.2066
    -11.7973 -29.3291 58.1162
    -11.683 -72.0684 60.8476
    -11.5777 31.2223 21.2766
    -12.1038 -71.4636 57.7567
    -12.0328 -69.2916 56.3085
    -11.6384 36.9368 -0.719556
    -11.5957 35.454 50.285
    -12.0008 -10.2258 62.882
    -11.5665 -71.6867 62.8345
    -11.5808 19.017 23.4193
    -11.426 40.6581 -0.301698
    -11.9764 -47.9794 22.6495
    -11.512 -62.2615 58.5798
    -11.5005 35.8996 38.3193
    -11.6405 -64.9759 64.2301
    -11.807 -72.3432 60.0063
    -11.4502 21.7772 22.7255
    -11.7144 -72.4447 55.8015
    -11.7392 -10.2428 36.7327
    -11.3535 -48.8429 26.5974
    -10.6402 -77.5126 73.2252
    -11.8207 -73.6285 57.8202
    -11.4625 -49.0331 54.1386
    -11.401 44.5358 15.5829
    -11.7684 -49.7948 20.0285
    -11.2876 -36.4007 26.21
    -11.2346 -74.3175 72.4476
    -11.5508 29.0923 58.557
    -11.8919 8.53719 29.0204
    -11.6713 35.5278 17.9878
    -11.5958 38.8172 10.5556
    -11.5756 -49.9397 46.066
    -11.2966 38.1479 -1.1765
    -11.4304 39.6758 -1.15801
    -11.0332 -76.7627 73.1112
    -11.6052 -49.4475 18.9913
    -11.6913 33.7361 53.3453
    -11.3978 -66.2936 66.4053
    -11.418 36.8594 30.9702
    -11.9524 38.5299 28.5696
    -11.737 43.1726 21.1065
    -11.7175 -50.5789 20.602
    -11.7277 -48.7857 23.5595
    -11.2997 -70.4311 69.4969
    -11.382 36.0578 32.8239
    -11.5846 -48.5352 25.0162
    -11.4032 11.6893 64.7365
    -11.6483 -5.03135 64.2856
    -11.496 -15.3656 62.134
    -11.1663 39.1872 8.08826
    -11.3012 -28.5611 28.8209
    -11.2998 -32.4105 59.3441
    -11.1799 -37.127 60.8519
    -11.7222 -40.1644 22.181
    -11.4042 43.2178 25.7185
    -10.9132 34.0681 20.1024
    -11.0275 -33.3552 26.7956
    -10.9265 -47.4395 59.3278
    -11.5946 18.0029 62.9033
    -11.1546 -61.381 60.2817
    -11.2078 -50.1879 50.7075
    -11.1262 37.8023 6.14427
    -11.3191 -75.0894 56.89
    -11.398 -3.97369 37.7802
    -11.1269 -0.82001 37.2626
    -11.4107 -63.5615 55.8009
    -11.4263 8.38908 64.9362
    -11.0806 13.0741 25.8283
    -10.2594 -70.3186 65.3844
    -11.0546 -42.8956 61.0211
    -11.3772 -52.4048 20.2183
    -11.1982 -39.6778 60.8012
    -11.2135 -74.9576 59.2373
    -10.8512 -50.7587 48.4018
    -10.9966 -45.3024 60.3376
    -11.0644 36.3684 48.4172
    -11.4522 -0.734645 64.8297
    -11.1524 3.9282 33.4964
    -10.9937 -19.7791 32.2278
    -10.9892 -49.2935 36.5575
    -11.7519 35.9592 2.4012
    -11.1018 -48.6215 17.6352
    -11.1099 42.1344 1.17176
    -11.3114 -37.9332 24.0695
    -11.1126 -25.1177 59.7946
    -11.1748 8.9933 28.2297
    -10.7079 -13.8459 33.4257
    -11.0303 -72.1798 62.0456
    -10.7717 -18.7443 62.0822
    -11.5692 -71.0868 54.8766
    -11.2059 -59.9664 56.2064
    -11.1362 -9.70156 35.6894
    -10.4647 36.7753 43.3756
    -11.1992 5.81099 31.4089
    -11.0922 43.385 21.4155
    -10.033 -73.5186 69.8118
    -10.8976 -46.129 18.1214
    -11.0161 -69.4985 53.5156
    -11.5131 -49.1307 31.2199
    -10.9436 -55.8889 15.6737
    -11.1451 -10.5161 63.9534
    -10.6292 -66.4274 67.0648
    -11.0656 36.5517 4.03493
    -10.5693 38.5404 10.1488
    -10.7496 45.2895 10.5156
    -10.6844 -61.4537 61.8686
    -11.0398 -52.1526 22.1326
    -10.9444 -3.77278 36.446
    -11.0958 -58.9147 58.3746
    -11.1649 -49.6232 55.6555
    -10.8944 36.1434 0.749398
    -10.5446 -57.5293 13.2505
    -10.8772 -70.134 63.9015
    -11.0127 -60.2208 54.9062
    -10.9519 1.82721 34.9735
    -11.1674 38.9478 28.8346
    -10.7723 -49.4562 41.2523
    -10.9397 -49.2083 40.1411
    -10.65 -65.4006 53.3958
    -11.138 -38.9025 22.4899
    -10.6729 -49.7502 25.1855
    -10.9039 -75.8783 57.5798
    -10.8853 -74.9683 54.8435
    -10.8343 -36.7115 25.2409
    -10.661 -44.6717 18.4018
    -10.6654 26.3598 22.267
    -10.9803 36.073 2.29753
    -10.9482 -48.9481 57.9743
    -10.9375 -52.6985 55.4927
    -10.8039 -71.2615 62.6069
    -10.3261 45.7179 7.93102
    -10.9213 36.0282 16.3891
    -10.8534 -50.4824 44.1735
    -10.803 43.7453 3.16634
    -10.6763 -50.6941 23.9385
    -10.7489 -71.5132 53.1807
    -10.6779 -54.1777 14.723
    -10.8154 -55.048 18.8088
    -10.9329 -51.1473 53.4092
    -10.5836 -30.3283 60.1414
    -10.5505 -63.6757 64.5761
    -10.7678 36.7132 -0.248233
    -10.7748 -40.4082 20.8379
    -10.4507 17.0803 64.9163
    -10.4782 38.2074 -0.932513
    -10.6341 -58.2568 15.1374
    -10.9617 -54.8159 54.3393
    -10.9106 -68.1338 3.65501
    -10.4178 36.1105 34.2104
    -10.8308 -66.8302 3.0546
    -10.5351 -22.0001 61.4057
    -10.519 -50.9758 46.073
    -10.3983 43.2118 21.7827
    -9.79274 34.9858 54.7704
    -10.5077 -65.29 7.09319
    -10.7284 -56.8614 53.424
    -10.7057 -52.3923 57.0952
    -10.4658 30.8579 21.4102
    -9.82995 -77.4733 72.4783
    -10.6403 -59.3153 60.3134
    -10.7219 -52.0102 51.9245
    -10.6761 -75.8676 73.0227
    -10.6482 -5.08624 65.4713
    -10.6563 -51.4621 50.2227
    -10.473 43.3195 25.2734
    -11.0337 22.0422 62.5455
    -10.0333 28.0299 61.5358
    -9.92373 -77.4243 55.2817
    -10.1795 -62.0804 52.5793
    -10.4948 44.4884 15.9791
    -10.4743 -53.6198 58.4043
    -10.2111 -49.6818 27.2557
    -10.4674 -68.0373 1.96925
    -10.3286 4.72426 31.6349
    -9.48129 -69.1833 63.3828
    -10.1249 25.4004 62.6339
    -10.2085 -67.8627 68.1427
    -10.0238 34.9725 18.9173
    -10.4322 -53.1263 50.9066
    -10.9317 42.807 26.4805
    -10.4505 -60.0924 11.9817
    -10.5047 -65.5219 3.25874
    -10.4183 -69.3455 3.20728
    -10.164 18.0445 23.8364
    -10.1336 -54.5496 13.3539
    -10.244 -50.5802 59.3514
    -10.5998 -13.3308 63.9037
    -10.251 -0.361022 34.8222
    -10.1206 35.7513 0.790978
    -10.1238 36.1422 35.9252
    -10.0009 36.0413 4.21268
    -10.3028 32.8346 57.2009
    -10.2181 -33.8943 25.2138
    -10.3514 -58.7992 52.6599
    -10.3246 40.4908 27.8676
    -10.5554 -68.769 4.74506
    -10.2956 -29.7653 26.6293
    -10.5528 -60.2886 12.9332
    -10.4887 -49.8549 31.2623
    -10.2642 -66.4366 7.72389
    -10.2454 -57.2388 17.6781
    -10.5393 38.2311 29.622
    -10.6604 -73.2892 62.1601
    -10.148 21.5025 22.861
    -10.3176 40.1083 -0.44137
    -10.4133 8.62129 28.3593
    -10.0109 45.6218 6.81809
    -10.4117 -38.3932 22.3025
    -10.3498 36.4831 50.4988
    -9.67235 37.2791 48.9922
    -9.90905 -38.3713 62.4791
    -10.3959 -6.11117 34.9322
    -9.82557 33.6972 20.3886
    -10.1303 -26.29 27.7279
    -9.94874 -51.1079 14.4642
    -10.3182 -61.1613 13.8195
    -10.3335 -66.5092 2.00828
    -10.1625 -64.4006 5.88169
    -9.74599 -33.6682 61.6356
    -10.1392 -22.488 29.548
    -9.85289 38.8305 8.1074
    -10.1062 -1.72064 34.7561
    -10.2894 -45.2386 61.8424
    -10.4068 -9.82369 34.3741
    -10.44 0.35849 66.0315
    -10.044 37.0474 31.2106
    -9.96784 -69.5018 69.089
    -9.79243 36.674 5.27974
    -10.2753 -74.956 62.2095
    -10.0089 -59.3953 61.715
    -9.88759 -71.8354 63.5124
    -10.3456 8.72303 66.1282
    -10.1804 -42.3657 62.539
    -9.81529 -19.7876 30.8018
    -9.67932 -77.1849 59.8536
    -10.125 -63.7781 9.18395
    -10.052 -63.3514 7.89651
    -9.82904 36.4861 32.5267
    -9.7934 14.9862 25.094
    -9.29114 -69.3196 62.7831
    -9.26994 -71.9689 67.7096
    -9.87282 -52.079 46.8223
    -9.94567 -58.2168 11.3464
    -10.2396 -53.3094 22.3378
    -9.61733 -61.5764 63.7126
    -10.0955 1.95949 33.4277
    -10.2735 12.6915 65.9591
    -9.5323 36.3296 -0.40143
    -9.77792 36.695 40.0702
    -9.91487 -68.2466 51.6482
    -9.7726 -60.4319 9.4623
    -9.92085 -70.5502 62.7511
    -9.66509 -48.1907 61.5051
    -9.64929 45.0452 10.8232
    -9.83689 -26.1043 61.4543
    -9.85241 -53.6837 59.9655
    -9.65721 10.0926 27.5987
    -9.99094 -54.1988 50.0999
    -8.73403 -70.3241 65.325
    -9.62703 -44.7004 63.0365
    -9.89606 35.6395 2.52071
    -10.0019 42.6206 26.046
    -9.47284 -51.0683 41.2891
    -9.9322 -50.0746 36.0012
    -9.96966 -35.9342 24.4477
    -9.58734 -49.975 38.938
    -9.28868 -76.8063 52.8718
    -9.90371 -68.1349 1.57285
    -9.71573 -73.5372 52.0511
    -9.93948 -63.0015 12.2184
    -10.1739 -69.2917 2.32091
    -9.83493 -10.7145 65.3046
    -9.89357 -44.7074 17.6388
    -10.0225 -64.6799 3.21266
    -9.5738 38.6524 9.3767
    -9.7006 -52.1129 60.1336
    -9.95842 -40.3549 20.3346
    -9.80538 -64.6315 10.1373
    -9.26668 -64.2444 66.3809
    -9.71211 -48.4701 15.3816
    -9.69963 42.5636 22.1778
    -9.31447 -62.5878 50.8631
    -9.63985 -50.6866 25.1383
    -9.66147 37.808 12.219
    -9.67727 4.73135 31.1892
    -9.49902 44.0464 3.82487
    -9.7414 -58.4337 17.3548
    -9.66026 37.915 29.6383
    -9.29137 42.4113 1.59226
    -9.31676 23.5322 64.4614
    -9.41049 -51.8157 44.4049
    -9.55911 42.4393 25.2206
    -9.52831 38.2965 7.04633
    -9.23264 32.4223 59.5944
    -9.28325 -38.1589 63.093
    -9.3283 -68.9122 1.8621
    -9.94844 36.0017 16.465
    -8.91372 -70.5081 50.2568
    -9.35909 -14.9206 64.8188
    -9.47368 43.8959 16.0576
    -9.30346 -37.2839 23.0141
    -9.36696 -54.7778 61.0318
    -9.45383 -10.7605 32.939
    -9.62113 -69.9132 3.12559
    -8.97884 39.6403 -0.997236
    -9.00059 26.7616 22.8886
    -9.35562 -6.81817 66.4364
    -9.50056 -54.1335 22.2341
    -9.74362 -61.6153 14.6694
    -9.03766 -22.5563 63.047
    -9.38043 -65.9225 1.67812
    -9.46686 -49.943 37.1257
    -8.54615 40.6514 0.249053
    -9.47112 -53.2908 47.6986
    -9.12152 2.10301 32.3963
    -9.14187 -30.8997 61.8779
    -9.44859 -68.2503 6.8706
    -9.74721 -7.2523 33.8679
    -9.09387 34.915 19.7864
    -9.504 -63.1377 6.30312
    -8.5625 -79.366 58.6649
    -9.43668 -35.1613 24.2115
    -9.07448 41.6126 22.3125
    -9.30102 -57.7705 50.0534
    -8.89905 -50.1563 28.4808
    -8.74847 -71.3283 69.8317
    -8.80927 6.03807 30.0971
    -9.39037 -76.3561 72.2678
    -9.14422 38.6707 28.1394
    -8.72876 -50.6263 25.7864
    -9.05632 -65.636 10.4888
    -9.15919 31.7586 21.661
    -9.36548 -43.0148 18.3475
    -9.50215 -63.2687 13.037
    -8.68596 37.7746 48.3831
    -9.44168 37.7704 -1.22452
    -9.37119 -2.79295 66.8359
    -9.267 -28.1777 26.028
    -8.58181 -78.1675 52.8766
    -8.79752 36.193 53.9607
    -8.75606 -1.49474 33.0683
    -8.92517 -50.3604 61.6868
    -9.24632 -39.7628 20.6254
    -8.85371 35.9249 2.73713
    -8.67237 -66.2229 67.925
    -8.92157 -71.0355 3.86387
    -9.0674 -70.6954 2.43308
    -8.7757 -43.1565 64.0756
    -9.09303 -48.1263 15.1858
    -9.20271 -50.4315 34.3301
    -8.62262 -62.4388 5.8866
    -8.38674 -66.5882 1.76189
    -9.12881 36.3422 4.29055
    -8.87432 -55.3524 48.4159
    -8.80267 36.2407 33.4564
    -9.00815 37.1146 14.9062
    -9.21959 -54.6885 11.9322
    -8.73087 34.3632 57.9623
    -9.19158 -72.7139 64.0324
    -8.91711 -69.8959 64.2313
    -8.87954 -71.3494 66.5784
    -8.96301 -69.5018 1.42251
    -9.22404 4.00104 67.1143
    -9.25557 -74.6913 63.943
    -8.89638 43.1397 2.2621
    -8.82224 -59.0366 17.8301
    -8.3638 -68.2126 68.6821
    -9.25099 10.9368 67.016
    -8.67517 36.0478 0.896466
    -8.69806 38.301 11.8015
    -9.22832 15.7423 66.5288
    -8.61286 36.6338 -0.236424
    -9.12668 -62.5626 14.5256
    -8.74907 22.9437 23.3938
    -8.61503 -50.5854 33.5307
    -8.02243 -11.5066 66.6758
    -8.57193 45.3195 7.69679
    -8.78349 20.0565 23.9169
    -8.67723 -61.731 49.7622
    -8.77628 -0.0771228 33.0229
    -8.5849 -50.1846 27.3581
    -8.743 -69.9945 6.13862
    -8.99738 21.0442 65.5755
    -8.76819 29.4463 22.5842
    -8.84901 -61.0376 7.11205
    -8.83194 44.6934 10.4482
    -8.62633 -59.2072 63.3793
    -8.41802 -65.9498 2.02889
    -8.57815 -25.1026 26.7693
    -8.58481 -54.121 11.6432
    -8.4755 -65.0471 49.6022
    -8.66364 -46.2027 16.3067
    -8.41634 16.8922 25.0666
    -8.59017 36.4981 31.2457
    -8.20969 38.9582 7.6059
    -8.65396 -69.88 63.2393
    -8.63189 -46.9335 63.3668
    -8.51911 -18.5685 29.8515
    -8.85603 -54.8494 21.9653
    -8.76565 -52.1201 43.6123
    -8.3639 36.3047 35.6863
    -8.43274 37.5196 5.25423
    -8.91762 -57.2651 10.4642
    -8.75697 42.0317 19.6262
    -8.74577 -41.8604 19.0358
    -7.6399 10.8419 27.9949
    -8.47477 27.5405 63.8314
    -8.8672 -59.276 8.90451
    -8.37821 43.8939 11.6219
    -8.47954 35.0753 20.2135
    -8.04194 -52.7496 62.359
    -7.69631 -72.6579 69.9399
    -8.71086 -28.8458 25.3664
    -8.81509 -7.73733 32.8055
    -8.20134 39.0562 8.8585
    -7.92886 -68.0788 0.711352
    -7.95765 37.1105 52.9144
    -7.57379 -64.1155 67.4016
    -8.58091 37.8522 -0.987102
    -8.30123 -70.7912 63.3219
    -8.307 -21.0878 28.6964
    -8.21459 -50.0604 36.7693
    -7.83957 8.37781 28.95
    -8.41906 -73.1374 64.7062
    -7.27055 -74.6922 69.1226
    -9.07042 30.9953 61.0299
    -8.1465 37.7911 45.2885
    -8.60135 -76.049 64.0205
    -8.35501 -57.4188 48.3694
    -8.62052 -10.7034 32.1822
    -8.54815 44.6591 5.0134
    -8.53035 -74.2366 50.7148
    -8.39789 36.8445 29.3973
    -8.36621 -49.8263 35.7626
    -8.13481 -58.5512 8.90407
    -8.0372 -54.8446 62.601
    -8.57395 40.4831 24.1016
    -8.49022 -53.2352 45.2696
    -8.1779 42.3539 1.74703
    -8.21832 37.2203 27.6392
    -8.54998 -37.0065 22.7567
    -8.19117 -70.1651 6.48498
    -8.26645 32.9978 21.8805
    -8.13682 -40.9819 19.8124
    -8.08299 -52.646 23.924
    -7.91177 -67.0229 9.80558
    -8.18246 3.94684 31.0391
    -8.21608 -62.9917 14.73
    -8.32989 37.4644 15.9447
    -7.19548 -73.9369 68.5781
    -8.00234 -45.5689 64.3915
    -8.06589 -53.7843 11.62
    -7.76396 -61.3384 65.4673
    -8.08483 38.5905 -0.108474
    -6.49428 -76.7808 68.3525
    -8.27019 -50.5024 31.9323
    -8.17511 -45.1166 17.0521
    -7.96317 -54.5031 46.0021
    -7.55489 -71.4761 2.7573
    -7.6296 -71.8997 49.0859
    -7.85838 36.2083 56.0134
    -8.33092 -34.4454 23.8027
    -6.84016 -76.5783 69.6613
    -8.46842 -79.2723 54.7818
    -8.57298 -68.3221 8.02258
    -8.10246 -2.86825 67.6963
    -7.42225 37.4476 41.7029
    -8.21455 -51.0954 39.2012
    -7.59853 -74.2516 70.3899
    -7.77116 -56.518 10.2459
    -7.9157 -55.1436 21.9056
    -7.68183 -34.8813 63.3717
    -7.49032 -64.0811 3.33606
    -7.9247 -70.7807 64.374
    -7.71781 -71.1907 4.97751
    -7.24699 -73.169 66.9135
    -7.60511 -1.24477 32.0568
    -8.01954 41.5757 16.0285
    -7.70545 -50.316 26.6584
    -7.91752 -38.7039 22.1162
    -7.65335 -66.7629 48.6936
    -7.93205 -49.9628 33.5929
    -7.84215 38.569 16.0995
    -7.87469 -70.7938 1.57113
    -8.1137 39.7619 21.9019
    -7.8864 37.0599 0.960552
    -7.68227 -69.6331 0.90266
    -7.81006 -60.17 6.98626
    -7.79087 -51.9913 41.312
    -7.95851 39.0952 10.995
    -8.09983 18.998 66.8316
    -7.61837 -33.0128 63.202
    -7.95711 -59.0421 18.2107
    -8.03425 23.8532 65.6368
    -7.5318 -49.8526 63.3214
    -8.06301 13.8492 67.6339
    -7.8431 35.9486 33.0318
    -7.31086 43.101 2.82529
    -7.97619 -29.7476 24.7767
    -7.55531 -62.4002 48.4414
    -7.51508 -80.3057 57.6128
    -7.35333 -72.8129 66.184
    -7.62339 39.5429 12.2532
    -7.61448 -55.9487 46.7905
    -7.4907 42.3828 11.4955
    -7.58924 27.6888 24.3008
    -7.94208 22.7721 24.2441
    -7.91666 36.9595 19.1605
    -7.59896 -71.0049 65.4926
    -7.91417 7.26831 68.0003
    -7.47995 -30.9811 63.3205
    -8.73469 -77.5823 61.7638
    -7.65157 35.7153 31.4532
    -7.75591 38.4334 21.2271
    -7.41713 -7.88863 31.6532
    -7.64369 37.8903 22.9237
    -7.14342 -80.2374 60.3641
    -6.85626 0.127814 31.4963
    -7.42403 -42.1384 64.8922
    -7.4111 37.5094 4.81624
    -7.83435 -36.866 22.607
    -7.25662 -67.0972 1.31424
    -7.32844 30.7678 63.2374
    -7.41496 -18.9897 28.8652
    -7.43829 36.125 25.7671
    -7.72211 40.1267 16.2006
    -6.72842 -7.16411 68.1557
    -6.52215 -80.5092 55.2493
    -5.94319 35.9589 60.3268
    -7.24005 -3.88261 31.622
    -7.00524 -69.7897 69.1289
    -7.5077 1.47532 31.6738
    -7.72873 38.0182 19.7999
    -7.17102 -80.1095 57.3541
    -6.73459 -77.943 50.2179
    -8.03161 -77.4014 63.1567
    -7.86061 34.9381 21.5217
    -7.6349 36.1557 21.7381
    -7.28339 -74.4361 66.2598
    -8.13628 -24.7859 63.4074
    -6.65288 -79.4012 51.137
    -7.72616 -15.9046 65.9271
    -7.41484 37.8323 50.9575
    -7.23537 37.1045 2.82383
    -7.60806 -11.1216 31.3364
    -7.01655 -60.2035 6.7952
    -7.69281 31.2247 23.4441
    -7.49479 -50.4205 31.4139
    -7.40258 32.6589 61.7559
    -6.83507 39.4024 -0.126739
    -7.258 -58.0592 9.17329
    -6.96196 -53.0009 42.467
    -7.14298 -59.9951 47.5589
    -7.31334 -53.1257 12.0104
    -7.43117 -45.1709 17.3526
    -7.40753 38.1432 -0.0322278
    -7.20959 18.1143 25.6684
    -7.3241 39.7044 7.94858
    -6.48414 -49.4118 64.2084
    -7.012 -48.9718 33.741
    -7.1719 -22.0479 27.6615
    -7.25125 -42.2933 19.4996
    -6.44354 -81.2976 58.7422
    -6.77087 37.0567 39.1651
    -7.10979 -64.7564 2.91032
    -7.5447 44.6372 7.56293
    -7.25043 40.8297 11.2698
    -7.44198 -35.294 23.5288
    -7.10945 -60.1997 6.49664
    -7.87803 -38.3975 64.2146
    -7.37086 -58.0749 64.1802
    -7.08075 -70.0648 6.83261
    -7.31062 35.1379 29.0289
    -6.13149 -64.6767 68.3141
    -6.44466 -75.9261 66.3943
    -6.65875 38.2929 48.6632
    -7.22083 31.8129 24.5942
    -6.56212 36.4299 58.4505
    -6.87975 37.6422 4.57113
    -6.71108 18.8871 25.9829
    -6.8038 -44.9493 65.1596
    -7.32088 -50.2767 29.9938
    -7.10888 43.5793 4.74697
    -6.63645 -3.61672 68.4947
    -6.61752 -51.1714 38.188
    -6.59197 -57.4456 46.4649
    -6.62464 12.1094 28.0344
    -7.21856 -39.2293 22.3594
    -6.49668 -50.0098 28.7971
    -6.77718 43.3212 7.65282
    -7.2857 -61.8607 5.7648
    -7.0604 34.4433 27.1865
    -7.11149 -32.1975 24.1265
    -7.18533 37.3068 0.600113
    -6.96417 -71.2916 3.09139
    -6.63895 -50.7798 25.4098
    -6.71668 -60.9753 16.6706
    -6.75438 -68.773 48.0141
    -6.93967 33.4199 25.9212
    -7.00709 35.9874 34.9523
    -6.93751 40.178 7.754
    -6.34442 -52.0474 64.0148
    -6.90865 -49.2797 34.7358
    -6.70892 -80.0627 55.9176
    -6.5757 -48.6645 31.915
    -4.42481 -81.6114 53.5105
    -6.28365 -75.1388 69.3901
    -6.06187 -75.5514 48.5197
    -6.75706 37.8307 0.358755
    -6.6545 -74.6792 67.349
    -6.925 7.00157 29.5816
    -6.75258 -62.8875 14.9598
    -6.36374 -78.3744 63.6075
    -6.95802 -70.8771 1.99865
    -6.66151 34.7064 32.0032
    -6.60646 -54.3677 11.67
    -6.96136 -71.1186 4.58911
    -6.69907 -68.1138 1.12076
    -6.66157 23.5648 25.8961
    -7.36542 41.2646 0.57595
    -6.50138 -54.3158 43.7301
    -5.53881 5.13365 29.9961
    -7.0024 24.0827 66.278
    -6.45845 20.4693 67.5007
    -6.80618 29.3149 26.037
    -6.63699 3.26973 30.7821
    -6.61605 42.5674 2.91613
    -6.57438 35.5865 34.607
    -7.22438 -65.0769 12.5639
    -8.91718 -63.7577 3.52092
    -6.05387 -55.7502 64.4187
    -6.67156 -42.3522 20.409
    -6.64878 -26.2207 25.8236
    -6.57108 -50.508 14.2922
    -6.92697 16.517 67.9643
    -6.30805 25.071 26.6072
    -6.23768 -80.5132 53.1514
    -6.93765 28.7805 64.5667
    -6.59903 37.4623 54.9366
    -6.92395 -37.9336 22.612
    -5.9769 -77.5304 49.1208
    -6.55862 -78.7639 56.8269
    -6.51596 -78.8693 57.7208
    -7.05834 44.065 6.60844
    -6.33867 -73.1355 69.4689
    -6.30145 -67.1953 10.2707
    -6.33438 -25.7867 64.6493
    -6.10974 -63.1296 47.1762
    -6.15613 40.7602 0.889374
    -6.51214 41.6427 7.7001
    -6.33997 -66.7832 68.8482
    -6.09055 -49.9822 26.6677
    -6.27967 31.9097 29.126
    -6.01958 -70.5441 6.84348
    -6.20591 -80.7796 57.7981
    -6.72282 11.5627 68.5123
    -6.27499 -42.6444 65.3524
    -6.04099 -80.982 60.6156
    -6.08643 -10.4945 30.5289
    -6.50863 -36.7014 23.5101
    -5.60397 -48.7304 64.8758
    -6.42825 -56.5581 10.6992
    -6.22939 -76.0096 67.6019
    -6.08414 -71.6475 3.28873
    -6.37649 -20.8724 27.71
    -6.86018 -58.8924 18.3027
    -6.63686 -49.5297 30.5457
    -6.25935 37.9525 2.59468
    -6.37572 -18.6747 66.2002
    -5.27871 -65.1738 2.76433
    -5.8419 -55.895 44.6517
    -6.26958 -39.0168 65.0351
    -6.38999 33.1613 30.1504
    -5.94101 15.2608 27.641
    -6.29137 30.1872 27.8606
    -5.72257 -61.9254 5.89504
    -6.26073 -58.0375 9.65939
    -6.53871 -50.0759 29.8743
    -5.80958 -80.568 50.946
    -6.3823 38.2069 4.00648
    -6.43068 4.31776 68.7636
    -6.1538 -58.6505 46.5195
    -6.05812 41.0866 1.62478
    -5.91097 -61.4446 46.8707
    -5.51115 -32.1182 24.4639
    -5.79566 -14.1957 29.4587
    -6.4301 -13.636 67.276
    -6.45106 42.7333 5.68007
    -5.70902 -71.1817 1.78986
    -5.98996 -79.1783 55.7708
    -5.64491 -76.5419 66.7014
    -6.05541 -64.1074 13.3804
    -6.25214 -40.6532 22.7163
    -6.03347 -28.6419 25.1133
    -6.85134 -69.5309 1.07294
    -5.27778 -79.3913 58.418
    -6.29297 9.04574 28.9515
    -5.13944 -77.0725 65.9181
    -5.78117 -53.7762 64.4523
    -6.09071 -79.1169 58.0582
    -5.61091 -35.006 64.4247
    -5.83874 -60.7171 66.4451
    -5.30992 -53.2123 41.1095
    -5.90385 38.1445 52.9557
    -5.62463 1.8475 30.709
    -4.98671 -76.7408 67.2248
    -5.49375 36.6223 38.8803
    -6.12742 40.8546 4.68713
    -5.78484 37.3785 41.9215
    -5.25379 -79.9905 48.3342
    -5.87397 -48.414 17.0088
    -5.98451 34.3188 33.3643
    -5.59137 -22.5058 26.9645
    -5.90089 -32.5776 64.1102
    -6.25395 -53.2681 22.9955
    -6.37952 -66.6333 1.72854
    -5.69037 20.2137 26.9418
    -5.57802 -39.8608 23.1435
    -5.62929 -71.1757 5.66195
    -6.05756 38.7818 1.05512
    -5.59697 -47.1971 32.0554
    -5.23872 -67.9858 9.3656
    -5.48122 -60.0423 7.5497
    -4.83496 -71.1912 69.2463
    -5.37945 -68.1841 0.639278
    -5.65823 27.3688 28.5374
    -5.15637 38.2882 47.7743
    -5.04326 -66.8439 46.7069
    -4.8106 -73.612 47.3583
    -4.66376 -81.9642 48.555
    -4.92007 -48.4776 19.1626
    -5.43338 -18.8424 27.9206
    -5.94487 -7.59573 30.8658
    -5.14054 -55.6398 12.5244
    -5.82702 24.4254 66.7572
    -5.49121 37.7042 58.9771
    -5.71134 -57.2822 64.9943
    -5.39017 -46.5691 31.0065
    -5.68644 37.9215 57.4328
    -5.54951 -48.2614 33.5122
    -4.02471 -82.0885 57.6784
    -5.3184 29.542 65.1249
    -5.30649 -52.1755 14.8999
    -5.75059 -58.6629 17.9406
    -5.80474 -48.6459 28.9959
    -5.11664 -26.9329 65.2386
    -5.79371 -49.5727 28.5427
    -5.57438 -0.982785 30.8469
    -5.46066 32.0002 31.8176
    -5.76748 -49.6997 27.7465
    -5.18183 29.728 30.8336
    -5.6991 17.058 68.4348
    -5.61067 -79.3624 55.5073
    -4.91641 -76.2734 67.8652
    -5.7603 12.4682 28.315
    -5.24483 -25.0181 26.58
    -5.81697 -70.328 1.04141
    -4.86121 -81.5737 52.5421
    -5.14887 -46.2852 29.3671
    -5.43291 -70.2448 47.3851
    -5.15105 -61.228 15.7565
    -5.1913 -57.8494 11.1475
    -4.10015 -82.3275 59.6453
    -4.83457 -56.8274 44.6547
    -5.6401 38.2717 55.3773
    -5.05691 -69.5902 0.76469
    -5.06242 32.4545 63.7904
    -4.6537 -44.616 23.6425
    -5.0481 -42.8841 23.6906
    -5.32278 -63.6241 13.4375
    -5.21534 -70.7183 6.38008
    -5.2676 -73.7748 68.9842
    -5.02211 21.6073 27.8323
    -5.09079 -44.0625 65.6327
    -4.7667 -77.9755 48.4749
    -5.23975 -63.4149 4.58229
    -6.27351 -50.0269 35.892
    -4.99537 -50.5798 24.1835
    -5.4799 11.9449 69.0172
    -3.7563 5.70691 30.003
    -5.33335 -49.9883 25.4309
    -5.07795 38.474 52.2402
    -4.44265 -80.2298 62.6773
    -5.2686 37.6147 60.0427
    -5.30676 34.1457 34.3239
    -4.64127 35.6964 37.3711
    -5.22505 -79.4946 55.3395
    -5.34133 -52.5966 22.8752
    -4.66596 -68.8509 69.3902
    -4.12307 -53.1691 40.1934
    -4.34235 -50.4163 35.6121
    -5.10646 -29.2054 25.2888
    -4.56493 -62.6033 5.6496
    -5.25559 39.2971 57.7567
    -4.97569 35.9181 61.5743
    -4.7619 -24.932 26.4911
    -4.77234 -71.1326 4.45997
    -4.92057 -54.3083 42.2738
    -3.90558 22.5154 29.6064
    -5.16918 -16.4809 67.3665
    -5.01363 39.4342 56.4803
    -4.64316 -79.5385 58.3307
    -4.83271 -37.7044 24.2313
    -5.16771 -48.1134 27.6131
    -5.1238 -49.2739 27.0338
    -5.05762 -57.8017 17.9626
    -4.43374 -82.8787 49.247
    -5.0764 41.0411 59.6966
    -5.13547 -11.9278 68.2251
    -4.78213 -45.7282 27.8629
    -5.08088 4.59739 69.3254
    -4.82225 -49.3661 65.0977
    -3.91279 -7.24157 69.3272
    -4.71884 -61.8005 6.74055
    -4.26397 -31.8151 64.8883
    -5.03798 -2.71343 69.2299
    -3.25595 -57.0079 66.2363
    -4.59826 32.1635 33.5156
    -4.08344 -66.7548 10.1207
    -4.56975 -68.0948 1.57563
    -4.33964 -79.1251 47.671
    -4.7603 -22.5205 26.8227
    -4.24674 17.1236 29.1858
    -4.17589 -40.401 65.6802
    -4.78048 -46.1084 31.6139
    -5.12433 14.6697 28.4265
    -3.58015 -59.1728 45.0625
    -2.38375 38.1337 48.958
    -4.44044 -81.4589 61.0295
    -4.30206 -81.5599 47.8583
    -4.82367 -79.562 55.2438
    -4.66565 44.6653 58.5148
    -4.14395 -60.0779 9.32588
    -4.52015 -64.3163 3.59968
    -4.45365 -81.1214 54.8212
    -4.49739 -7.54319 30.3811
    -4.56713 37.6689 61.3114
    -4.57689 -10.6257 29.9662
    -3.47013 -82.6435 58.593
    -4.6444 -44.7926 30.0457
    -4.7191 39.0423 54.5887
    -4.29195 -2.46506 30.4528
    -4.71219 -81.3595 57.5997
    -3.80396 -62.2592 45.8549
    -4.47024 -13.8462 29.1755
    -4.74205 -70.655 1.6969
    -4.37998 -69.3259 7.02992
    -4.7215 -52.2353 22.2798
    -3.86971 26.0624 31.0155
    -3.64002 -60.6321 67.3262
    -3.69982 -76.5802 46.8395
    -4.65636 41.0066 60.7123
    -4.01324 -83.3364 50.1589
    -4.37202 46.2185 57.4614
    -3.64723 -23.2204 66.8144
    -4.05264 34.1371 35.6688
    -4.51057 -19.1858 27.655
    -4.18088 26.9126 66.5062
    -4.58557 -48.9451 25.8307
    -4.63418 -39.7491 23.4622
    -4.38702 -44.8759 26.6425
    -4.05638 22.576 67.851
    -4.74372 -71.2021 3.05292
    -4.27493 38.6134 51.7948
    -4.5325 -47.3054 26.1991
    -3.74983 -78.1128 47.2361
    -3.94866 -79.6643 57.9701
    -3.90466 -80.6489 47.4334
    -3.85466 -54.5489 65.6309
    -4.8872 -66.7367 1.81128
    -4.55858 43.3209 60.144
    -4.48344 -57.1874 17.5957
    -4.37578 -52.2334 16.8239
    -4.43235 36.2029 37.907
    -3.47336 -58.4144 66.5276
    -4.02643 -79.6853 55.2822
    -4.3706 3.03576 30.2964
    -3.99002 17.5256 68.888
    -4.47455 40.6284 55.715
    -4.42748 -43.4229 23.9083
    -4.53977 -31.9557 25.0395
    -3.20828 -60.9305 45.3652
    -3.90992 -27.861 26.4204
    -3.42091 -75.1457 68.0134
    -3.87569 -77.6422 49.4997
    -3.91047 29.5069 32.6196
    -4.33748 -60.7007 15.1847
    -3.57098 -77.0952 66.4357
    -3.74549 -47.0618 65.5298
    -4.30966 45.5953 60.292
    -3.91465 -42.4632 29.0117
    -3.38043 -67.2153 69.3657
    -3.32527 19.4824 30.1362
    -3.20013 -79.921 47.8575
    -4.24802 -49.3727 24.0836
    -4.13627 -58.7049 12.2052
    -3.67392 -78.386 48.8573
    -4.25724 -62.8984 13.0532
    -4.06608 -46.8074 23.2675
    -4.14956 -69.8722 2.18709
    -3.66381 -72.8103 68.9905
    -4.15504 -55.5106 17.8703
    -4.0981 51.507 60.4557
    -2.87589 -70.3644 46.2306
    -4.26269 -49.0184 20.9602
    -3.79116 -50.1381 65.5146
    -4.03131 -70.0789 3.59546
    -3.89912 -64.6382 68.79
    -3.78687 12.1917 69.507
    -4.06415 -77.9148 50.0807
    -4.12254 -43.933 30.3905
    -4.1612 -78.5601 49.8601
    -4.23032 -48.3415 24.9499
    -3.33929 -62.0035 8.26072
    -3.31452 -35.5507 65.1886
    -3.2909 -49.7016 34.4722
    -3.13816 -64.1223 4.40653
    -3.96567 -41.8609 24.156
    -3.31454 34.9426 63.1909
    -3.96615 46.4933 56.5687
    -3.80223 -76.6687 66.9219
    -3.91754 -38.7641 24.397
    -3.88288 52.0351 62.1898
    -4.03701 -78.4713 48.9874
    -3.98275 -48.4584 23.1211
    -3.27714 -69.4913 6.15091
    -4.04921 -51.4523 20.7543
    -4.04746 -53.4361 17.3326
    -4.0433 39.1108 53.4646
    -3.98041 -48.638 23.7963
    -3.92465 50.4894 58.8636
    -3.97396 -55.2678 16.8806
    -3.92378 59.6406 64.3383
    -3.67359 -59.2355 13.4665
    -3.27259 38.5988 51.2791
    -3.84174 -60.6182 14.1387
    -3.84159 -42.4432 25.0319
    -3.78894 42.2062 61.5215
    -3.74191 -44.1423 23.8176
    -3.91383 39.895 54.3499
    -3.67594 -36.0058 25.332
    -3.99073 -13.2761 68.4642
    -3.27568 -68.8295 7.25493
    -3.49153 -69.4438 1.82207
    -3.44763 4.8883 69.8148
    -3.11087 -78.4567 49.4065
    -3.32015 -48.3003 33.0862
    -3.72019 -27.6295 65.7005
    -3.4601 -40.1182 27.8308
    -3.85009 65.0454 68.2776
    -3.31074 -80.9086 55.495
    -3.33974 -83.3229 48.2469
    -3.01498 -3.96913 69.805
    -3.68013 -81.3013 56.8784
    -3.68377 -59.5768 14.0702
    -3.80037 41.7987 55.1317
    -3.66039 -40.6781 26.219
    -3.39309 -0.329469 69.8152
    -3.7522 69.6754 72.7474
    -3.65847 34.3002 35.3216
    -2.44751 -80.898 62.5216
    -3.75646 58.9607 65.4722
    -3.72546 53.9625 59.9842
    -3.18975 -69.8274 2.58032
    -2.9488 -80.384 47.4373
    -3.15417 36.7089 62.6794
    -3.26846 -69.9437 4.23151
    -3.28827 -29.9297 26.511
    -3.6834 31.9334 34.1598
    -3.54452 -60.5479 10.1834
    -3.65608 63.3626 68.4191
    -3.18432 -67.9917 1.44146
    -3.57341 45.2118 55.657
    -3.63084 73.57 77.9271
    -3.62136 60.0517 63.1548
    -3.58012 45.4691 61.5851
    -2.45856 11.0101 30.049
    -3.54116 -79.74 57.4619
    -3.23766 -64.2878 45.6085
    -3.5926 68.621 73.3181
    -3.57809 65.6097 67.281
    -3.22548 -39.974 28.7264
    -2.82016 7.89692 30.0236
    -3.55305 -66.0855 2.00097
    -3.40023 -77.3806 51.0008
    -3.45303 81.1407 84.5413
    -3.29085 -66.2913 9.60317
    -3.47404 24.6878 30.7215
    -3.10335 -84.0904 49.8469
    -3.03762 -54.6434 41.5472
    -2.12767 -74.4762 46.0904
    -3.48129 70.2267 71.7239
    -3.4916 72.9801 79.0013
    -2.49345 2.74396 30.3231
    -3.21513 -36.4341 26.1736
    -3.25164 -63.1618 11.3731
    -3.08998 -61.5785 10.2714
    -3.01432 -36.4278 27.0408
    -3.19811 51.0626 57.8215
    -3.31782 -79.8372 56.913
    -2.18716 -56.6927 43.0255
    -3.3208 -81.0891 55.8762
    -3.35663 29.6296 32.5092
    -2.96065 -58.0141 44.2761
    -2.61729 -82.3664 56.4464
    -3.31304 74.2208 77.0635
    -2.93804 -76.7123 50.305
    -2.99589 -82.6483 53.523
    -3.38126 77.5776 83.2881
    -3.37437 32.2225 33.8045
    -3.34102 88.319 88.3617
    -2.67036 -64.0133 6.44873
    -2.9643 48.0177 56.0262
    -3.03176 -75.1819 49.5107
    -2.70016 -41.7542 65.9376
    -3.29226 94.7114 90.2981
    -2.59622 -25.7867 26.4415
    -2.21404 -81.5746 48.0094
    -3.1655 -61.7145 11.3705
    -3.24621 52.1475 63.5699
    -2.94521 -81.5716 55.1159
    -3.27046 82.6382 86.7698
    -2.83043 -75.0149 49.1554
    -3.2251 78.8455 81.5309
    -2.06167 -80.2238 45.9771
    -3.37038 -80.08 55.7968
    -3.19993 88.1049 89.4433
    -2.78427 -79.4139 49.581
    -2.66701 -82.7622 47.3745
    -2.8099 39.1041 52.422
    -2.31321 -51.0295 36.0245
    -1.7222 37.4165 45.7885
    -2.84057 -32.568 26.7545
    -3.14242 58.0753 66.3136
    -3.15973 93.6505 91.1723
    -2.74402 39.7884 53.2143
    -3.11723 83.6728 84.9304
    -3.05164 102.888 92.0284
    -3.17514 41.6217 54.4971
    -3.06912 99.4564 92.0007
    -1.65088 -53.7308 40.0866
    -2.72273 41.7751 62.4913
    -2.85219 -68.0803 7.38686
    -2.73863 -76.3653 46.2177
    -3.05407 88.7259 87.4877
    -2.53392 -63.9403 9.31682
    -3.03773 62.9506 69.5573
    -3.01669 93.9739 89.2018
    -2.98586 55.1927 59.4227
    -2.31735 13.7195 30.2388
    -2.96993 67.7349 74.042
    -2.20744 -82.0193 47.0719
    -2.92746 100.404 90.2449
    -2.52693 -63.3154 7.68309
    -2.85666 24.7762 31.4991
    -2.51371 -67.123 2.02425
    -2.90658 71.7291 79.3867
    -2.80298 103.924 93.2804
    -2.92837 60.5226 62.3156
    -2.0234 -80.243 48.0638
    -2.52232 -64.3348 6.85032
    -2.71369 45.8935 55.1469
    -2.24331 -54.6296 66.3499
    -2.88018 66.1554 66.5619
    -2.16421 36.7171 42.1096
    -2.22962 -65.9429 3.09326
    -2.7894 70.9914 71.1988
    -2.81311 76.894 84.1526
    -2.67533 -48.1167 65.6951
    -2.5301 30.2255 33.3166
    -2.48219 -68.9214 5.56754
    -2.55085 104.983 92.9714
    -2.49336 -12.5196 68.9599
    -2.52224 -19.7857 67.7937
    -2.70832 82.1309 87.6925
    -2.65165 -35.5803 27.3164
    -2.81014 -46.7725 31.8133
    -2.47892 -68.7221 2.43343
    -2.60154 104.478 91.7678
    -2.43858 -69.1618 4.0698
    -2.79491 -22.4635 26.86
    -2.64504 75.0959 76.8498
    -2.20142 34.7606 37.2667
    -2.37447 -67.1017 6.73308
    -2.65753 87.6915 90.3857
    -2.62186 93.4826 92.1817
    -1.34023 -13.8017 28.8089
    -2.56719 99.2454 92.8923
    -2.28562 -77.9901 49.0843
    -2.55925 45.2484 62.5863
    -2.54789 79.6709 81.1424
    -1.96232 -84.3589 50.3745
    -2.53427 -65.0578 7.94738
    -2.47428 -77.8966 51.1796
    -1.4705 -10.8752 29.459
    -2.46163 83.7573 84.063
    -0.798261 -7.72112 29.8503
    -2.13867 -75.7955 50.0245
    -2.39252 103.263 93.9818
    -1.74399 19.6527 31.5309
    -2.0862 -79.9399 50.1393
    -2.2341 33.5158 35.6267
    -2.42613 89.1803 86.8974
    -1.4537 -60.9803 67.8254
    -1.61382 -85.1961 50.896
    -1.98421 -2.08527 30.2677
    -2.18528 -64.084 8.13507
    -2.40587 94.8034 88.6422
    -2.20229 27.202 32.6019
    -2.31241 51.9562 64.5384
    -1.36596 -65.2655 45.0955
    -2.18722 -65.6371 5.96262
    -2.35589 100.004 89.4547
    -2.35472 35.8578 39.2713
    -2.0711 -75.171 51.78
    -2.07063 31.8595 34.4014
    -1.58439 34.5571 63.8926
    -2.09996 -67.8674 3.8486
    -2.38296 41.4811 53.9573
    -1.24175 -51.1502 66.3612
    -0.165908 -43.1409 29.9071
    -0.48986 -80.4185 63.5057
    -2.00886 104.21 90.7744
    -2.26601 51.3079 57.0802
    -2.18266 -82.832 55.2055
    -2.22363 58.1022 67.4393
    -1.36551 -23.6651 67.3687
    -2.23564 -76.7168 51.8991
    -0.993347 -82.1898 47.0173
    -2.14387 62.5372 70.4329
    -0.841996 -57.5108 67.0268
    -1.77429 -75.7659 50.6893
    -1.70473 40.1497 63.0629
    -1.11854 -40.347 28.7118
    -2.04864 55.4282 58.69
    -1.17511 -31.466 65.7337
    -2.83853 31.5154 64.9903
    -2.09385 67.2388 74.8755
    -1.54322 -77.4055 49.2568
    -0.344963 -83.0288 56.9266
    -1.80833 -28.8237 65.9539
    -2.01781 27.1867 66.7738
    -0.941849 22.5273 68.2777
    -1.83149 23.4509 32.1333
    -2.07696 70.8921 79.7715
    -2.06469 -71.919 51.4087
    -1.66346 20.0108 68.7778
    -2.08904 48.474 55.7058
    -0.00962204 -35.6011 65.7045
    -2.07489 60.9178 61.8041
    -1.99704 76.4237 84.9327
    -1.96902 -73.5241 52.3186
    -1.26905 -38.0095 27.8305
    -1.97366 67.3809 66.7117
    -1.61188 14.8241 69.5617
    -1.815 -76.2945 49.9523
    -1.43652 -84.3814 48.5223
    -1.45007 -68.9762 45.6305
    -1.55606 -62.2796 45.2312
    -1.93352 81.8808 88.5364
    -1.40452 37.5273 63.3439
    -1.30992 105.839 91.7773
    -1.90621 71.8688 71.36
    -1.39346 -85.0929 50.3471
    -1.04853 -58.3299 43.8415
    -1.44663 -80.8989 45.7928
    -1.90019 87.6136 91.244
    -1.86834 -73.8008 51.7884
    -1.08249 -79.543 45.2539
    -0.169063 -82.2962 60.4017
    -1.87822 93.3725 92.9722
    -1.68399 -45.4025 65.7571
    -0.00146717 -70.3952 69.7635
    -1.84029 98.8046 93.5838
    -0.0811831 -72.0418 69.461
    -1.82438 74.8226 75.5408
    -0.575911 9.83678 70.011
    -1.80313 76.8812 77.8923
    -1.19687 -35.2721 27.0716
    0.0113969 -69.1004 69.8273
    -1.41166 -47.5855 65.7923
    -1.73062 103.713 94.7095
    -1.00196 -31.9806 26.5417
    -1.2051 -19.2767 68.1414
    -1.75183 81.065 81.6179
    -0.539682 -1.19847 70.2344
    -1.85477 105.75 92.7515
    -1.67575 -71.7045 50.9101
    -0.96657 -84.6579 49.5648
    -0.874681 -81.9143 47.957
    -1.69151 85.8483 84.7094
    -0.220339 -78.1212 65.9086
    -1.51453 35.408 39.5472
    -1.55276 105.35 94.4388
    -1.1286 -72.1818 45.8509
    -0.0650954 -74.3401 68.6187
    -1.66833 90.6028 86.899
    -1.22962 -74.4238 50.9074
    -1.63608 95.0078 88.1616
    -1.63278 100.647 89.1159
    -1.522 -78.6331 49.0466
    -1.5777 -80.9635 47.9266
    -0.0347032 -81.4934 61.9791
    -1.48531 -76.8976 50.4211
    -1.18498 -84.0438 50.8154
    -1.43682 -72.3898 52.0696
    -1.45156 43.7851 63.0638
    -0.822663 -72.5001 50.0024
    -1.42457 46.5873 63.5406
    0.0314728 -42.7799 65.8563
    -1.21898 33.9348 37.4371
    -1.06955 -79.9416 47.824
    -1.3405 -73.4206 52.6767
    -1.44247 10.2581 30.3967
    -0.282827 -84.1984 53.5269
    -0.977298 -78.005 49.9379
    -0.91731 -34.779 65.628
    -0.866392 41.6575 53.5391
    -1.29391 52.4476 65.3711
    -0.793985 40.4232 53.0346
    -0.820606 44.7768 54.387
    -0.615245 39.3674 52.2098
    -1.25482 13.0225 30.7124
    -0.819937 -76.8263 52.4833
    -1.25838 58.6677 68.3836
    -1.00727 32.1209 35.6573
    -1.22486 -75.0865 52.2842
    -0.704471 27.3335 33.2277
    0.0890982 -51.4077 36.3543
    -1.22309 63.2737 71.7465
    -0.77645 105.071 94.9891
    -1.1303 56.1525 58.5461
    -1.2592 48.7029 55.5814
    -1.18655 66.8977 75.3627
    -0.543888 29.4395 34.1327
    0.512606 -39.6065 65.8991
    -1.57729 -78.0102 52.0137
    -1.17808 70.4111 80.0499
    -0.394705 -47.8885 32.8349
    -1.13063 73.8121 83.3904
    -1.10929 62.7988 62.5744
    -1.10149 77.2447 86.234
    -0.881103 -59.7396 44.482
    -0.444111 -77.6869 49.073
    -0.0765508 -76.5212 67.2399
    -0.468356 31.0639 65.4229
    0.0569302 -53.6931 39.7224
    -1.06758 68.5233 67.2782
    -1.06306 82.7716 89.6295
    -0.477472 35.5999 41.1706
    -1.04755 88.6974 92.1996
    -0.57504 36.2463 42.8416
    -0.765998 72.1263 71.0426
    -1.06792 93.7605 93.5311
    -0.666105 -84.889 49.7157
    -1.04691 98.7806 94.0515
    -0.603692 106.205 92.9696
    -1.02827 75.9509 76.5065
    -1.02653 103.429 95.0429
    -0.0210388 -54.7966 40.9501
    0.121909 -55.9353 41.7892
    -0.715214 -74.8275 50.7464
    -0.52094 36.8269 44.7651
    -0.985024 80.6666 80.9544
    -0.683107 -81.1767 45.6911
    -0.928997 -7.56646 69.8581
    -0.530562 18.1163 31.885
    0.0413828 -4.40864 70.1399
    -0.954744 85.3975 84.1581
    -0.450263 -80.8735 49.7462
    -0.662457 89.7035 86.1925
    -0.929349 93.8924 87.6662
    -0.666241 99.4734 88.5551
    -0.367162 -82.7742 47.447
    -0.658339 102.249 89.3799
    -0.971895 -83.5674 47.684
    -0.30452 37.4075 46.7656
    -0.597502 105.093 90.6953
    -0.292433 -78.2533 45.2754
    -0.271236 -85.6297 50.7645
    -0.684152 -71.6967 50.2299
    -0.50383 -67.6083 69.6304
    -0.760119 22.0418 32.4262
    0.443957 -65.0771 69.0835
    -0.386587 -78.7153 48.8009
    0.53481 -82.1285 47.8143
    -0.319654 -82.7741 48.0243
    -0.0179739 -24.6 67.2701
    -1.02648 -81.5337 47.7746
    -0.271821 -82.9504 58.675
    -0.00956567 -29.8434 65.9775
    -0.422822 -81.2654 47.4469
    -0.931537 -83.226 55.5224
    -0.441604 -84.1062 48.2877
    -0.634687 -23.7696 26.5389
    -0.577063 -27.1143 26.2914
    -0.596832 -18.3661 27.5937
    -0.0670487 -45.2763 31.0038
    -0.346233 -75.1519 45.8364
    0.264829 -81.2307 47.9047
    1.70281 -50.0231 34.7187
    0.128959 -77.9955 52.1958
    0.133811 -72.5407 49.9706
    0.0292584 -74.3054 50.5827
    0.834944 -62.5888 45.1823
    -0.135911 -84.8857 49.7177
    0.0761677 -83.1628 55.9223
    0.270476 -75.0905 52.3697
    0.0333206 -12.5957 29.0374
    0.388885 -71.672 51.2729
    -0.292711 -73.3559 52.7626
    0.41645 -72.3541 52.1085
    -0.1373 23.9369 32.8093
    0.0518706 35.9185 63.7461
    0.0901442 39.0961 63.3297
    -0.264922 43.4831 63.2441
    -0.265018 46.7518 63.7963
    -0.265018 48.7477 55.5225
    -0.265018 52.6964 65.6692
    -0.265018 56.3761 58.5096
    -0.265018 59.2421 68.9511
    -0.265018 62.6256 62.3232
    -0.265018 63.6303 72.3159
    -0.265018 66.6695 75.3765
    -0.265018 68.4904 67.0861
    -0.265018 69.9338 79.7347
    -0.265018 73.3257 83.2429
    0.112733 75.0669 75.189
    0.142145 76.8487 77.3198
    -0.265017 77.8235 86.8247
    -0.265018 81.2577 81.3461
    -0.265017 82.7569 89.8042
    0.141406 85.581 84.1846
    -0.265017 88.6932 92.3643
    0.248393 90.6071 86.6146
    -0.265018 93.6637 93.6628
    0.126872 94.7858 87.783
    -0.265018 98.8636 94.2036
    0.191958 103.482 95.1636
    0.42386 105.707 94.3746
    0.484712 105.896 91.6725
    0.162691 -20.8516 67.9605
    -0.228899 3.97807 30.5649
    -0.842259 4.04475 70.1874
    -0.265017 10.2852 30.5523
    -0.246226 13.9194 30.9984
    0.469587 13.3157 69.7447
    0.231045 17.5989 69.2436
    1.00923 24.5121 67.6885
    0.143567 33.9981 64.2177
    0.188621 -57.1525 42.977
    0.0347206 30.6472 35.2244
    0.615971 -82.8892 47.2687
    0.09269 32.5827 36.9371
    0.208869 33.964 38.7992
    0.174771 -78.3546 48.5658
    -0.416522 -81.0402 47.7718
    0.739261 -81.0658 47.8477
    0.15241 -84.6577 49.5966
    0.300909 -81.6828 48.1249
    0.437517 -81.1408 49.1029
    -0.00787833 -61.5956 68.0875
    0.384194 -84.2994 48.296
    1.02177 -35.4749 27.1267
    2.31871 -45.6645 65.599
    0.569109 -47.2618 65.6833
    0.316487 -51.4799 66.4742
    1.50021 -28.6905 26.3508
    0.301219 -71.4846 50.5526
    0.416766 -84.0528 50.7895
    0.265265 -80.9967 45.6929
    0.617821 -79.9158 47.8749
    0.466071 25.4633 33.0988
    0.836347 -65.3705 45.1073
    0.816901 -69.0917 45.6368
    1.11024 17.8822 32.9007
    0.886094 105.013 94.7887
    1.17592 -84.3764 50.3239
    0.502437 16.663 32.4091
    0.70262 104.486 90.4994
    2.28181 -48.1874 32.9035
    0.783824 102.087 89.4737
    0.767109 99.4006 88.6831
    1.28455 37.4707 47.531
    0.483884 -79.5787 45.3388
    0.739143 -79.7926 64.0948
    0.742773 4.45341 70.1366
    1.55328 -22.9145 26.7326
    0.45499 80.6666 80.9544
    0.684035 -7.54764 69.8276
    0.573125 -85.1668 50.3115
    0.0444089 38.3811 50.296
    0.888145 105.984 93.0283
    1.42944 -75.2635 46.0391
    0.395647 -81.9988 47.0111
    0.976447 -85.0833 50.9026
    0.516876 98.7806 94.0515
    0.542884 72.0635 71.0915
    0.936593 -59.6325 44.4754
    0.537884 93.7604 93.5311
    0.517521 88.6974 92.1996
    0.533031 82.7717 89.6295
    0.537548 68.5233 67.2782
    0.56628 -74.4732 50.8672
    0.571455 77.2447 86.234
    0.564537 14.2264 31.3056
    0.755114 -77.5018 49.2276
    0.579259 62.7988 62.5744
    1.28567 29.0296 66.1096
    1.1879 35.4219 42.4887
    1.14051 -76.7789 52.1286
    0.600265 56.1525 58.5461
    0.60059 73.8122 83.3904
    1.41731 -71.877 51.2557
    1.55136 -31.8167 26.5278
    0.600051 -34.5501 65.6483
    1.41248 34.1909 40.2941
    0.648048 70.4111 80.05
    0.729165 48.703 55.5814
    0.656515 66.8977 75.3627
    0.550983 -72.2589 45.8692
    2.10513 -19.1023 27.5599
    0.693053 63.2737 71.7465
    0.751011 -73.4323 52.6429
    0.36788 -57.0352 67.0522
    1.39775 25.8144 33.2495
    0.728347 58.6677 68.3835
    1.52445 38.9576 51.669
    1.79525 -58.414 67.0174
    1.02027 22.4175 32.8558
    0.786432 -77.3206 50.2848
    1.42765 -60.9646 67.7797
    1.33556 45.4669 54.7167
    0.763872 52.4476 65.3711
    0.749162 12.6891 30.6712
    1.40098 39.7122 52.5913
    1.49946 -1.99346 30.2726
    1.68577 -82.67 55.3735
    1.29809 43.3547 54.2312
    1.35757 -79.8556 50.1873
    1.13875 28.5591 34.3961
    1.37203 41.0699 53.49
    1.36262 3.78868 30.3962
    0.922376 -80.5739 45.791
    0.894534 46.5873 63.5406
    0.756985 -78.6458 49.0099
    1.10281 -7.39984 29.9566
    1.62008 -81.3378 48.0255
    0.92891 -10.8935 29.4551
    1.20059 103.713 94.7095
    1.0589 -75.7345 50.6475
    0.914224 10.5204 30.3988
    0.921388 43.789 63.0641
    2.46513 -67.1052 69.3527
    1.10519 -76.3108 49.9052
    1.50869 -39.3213 28.3242
    1.34284 30.414 35.7467
    1.89949 -46.004 31.257
    1.25177 -80.1666 48.0623
    1.46216 -78.0029 49.0135
    1.43659 -75.8155 49.9668
    1.10605 95.0078 88.1616
    1.15868 -78.0389 51.8002
    1.1383 90.6028 86.899
    1.16147 85.8484 84.7094
    2.13201 -82.4094 56.5749
    1.90978 104.919 91.8305
    1.7233 -25.8948 26.3687
    3.74179 -72.2346 69.0072
    1.22179 81.0651 81.618
    1.4904 36.5782 45.1833
    1.64281 -61.2854 45.094
    1.88641 -0.474308 70.0084
    1.60055 -24.2398 67.0985
    2.38185 -79.9516 47.7677
    1.63985 23.2034 32.7569
    1.79563 -29.2491 65.7957
    1.21988 32.6553 37.9538
    1.24562 -73.8182 51.7382
    1.2731 76.8812 77.8923
    1.96182 -12.4813 68.9656
    1.43265 -75.1905 51.7235
    2.28809 -42.7175 65.8158
    1.31026 98.8046 93.5838
    2.07612 -55.7842 42.2
    1.29434 74.8225 75.5407
    2.56497 -53.2284 39.7156
    2.8066 10.3985 69.6949
    2.0215 -57.7248 43.8189
    1.64652 -32.346 65.5348
    1.97454 -84.2457 49.3639
    1.36643 -73.5426 52.2649
    1.34818 93.3725 92.9722
    1.37618 71.8688 71.36
    1.37015 87.6137 91.244
    1.55731 38.1701 63.0134
    1.40348 81.8808 88.5364
    1.94602 34.6523 63.5876
    1.44361 67.3809 66.7117
    3.09586 -50.6889 35.7844
