    -17.4939 118.114 26.8465
    -18.0137 120.216 67.0683
    -18.1693 88.6746 98.5987
    -17.0362 -32.5977 20.3958
    -17.1133 -49.0546 55.8898
    -16.5851 -51.6246 67.1765
    -17.8893 118.225 136.195
    -17.7227 106.751 1.43996
    -18.2446 114.905 152.522
    -18.1029 119.084 18.7951
    -17.7994 -46.1333 19.1429
    -18.2754 -21.6811 78.0772
    -18.1659 -45.2038 113.993
    -16.9872 -107.933 198.69
    -17.9765 -42.3688 41.2363
    -17.9416 -8.6512 87.8603
    -17.4591 -42.793 152.329
    -18.1173 21.4638 159.989
    -17.7297 -33.7937 154.566
    -17.3941 115.249 17.3325
    -17.7283 117.515 59.0537
    -16.8478 -101.49 190.336
    -18.0889 105.329 13.9759
    -17.881 -45.9896 142.76
    -17.8836 108.165 22.3349
    -16.3395 -100.898 191.346
    -18.0953 108.758 53.785
    -17.5734 -7.61062 93.6255
    -16.756 -40.6495 155.392
    -17.3808 -47.4406 39.4002
    -17.8891 -42.3021 55.7143
    -16.8651 103.995 10.8245
    -16.2324 -17.7287 161.064
    -19.5345 -42.4067 63.7948
    -17.3897 -40.6766 27.3539
    -16.2571 -33.9765 68.2242
    -16.4473 114.392 111.052
    -17.8457 120.452 70.7005
    -16.8158 -103.946 191.423
    -17.4886 116.395 75.7837
    -17.646 113.202 84.5147
    -17.7413 -38.3777 65.5232
    -18.1919 104.116 70.0501
    -18.0286 41.6752 103.819
    -17.1066 -30.4093 97.2278
    -15.1971 101.691 -0.613134
    -16.7361 -47.3263 132.809
    -17.0094 119.401 70.6819
    -16.8332 108.79 29.0442
    -17.5343 13.5047 160.265
    -17.1978 115.124 12.5659
    -17.6382 46.8377 104.955
    -16.5618 -104.496 195.074
    -17.5877 36.8688 161.179
    -16.7431 114.756 44.1635
    -17.3633 110.398 100.915
    -16.9963 -38.912 31.1668
    -17.1868 -30.9174 99.8772
    -17.3488 114.381 76.2558
    -16.98 -40.9035 44.5702
    -17.2877 92.4842 87.6953
    -16.9163 107.751 59.208
    -17.0445 110.128 33.2306
    -16.7548 114.722 52.7498
    -17.1091 84.6179 104.921
    -15.2635 -100.772 192.264
    -16.8344 117.144 9.3422
    -15.5245 2.89118 103.376
    -17.4303 87.3174 101.472
    -17.4607 -48.7864 31.1794
    -15.739 -37.3283 33.1902
    -17.149 29.2198 102.068
    -15.9735 -30.5574 92.7943
    -16.8816 -40.7982 55.0511
    -17.0577 110.334 94.1364
    -17.1701 111.1 84.0143
    -16.5985 -44.8106 15.2293
    -16.82 -34.0578 23.1446
    -16.5829 -37.826 11.3939
    -17.0568 -46.715 118.194
    -17.0588 110.206 48.5532
    -16.2249 117.48 21.7508
    -15.1392 -40.3705 9.15919
    -16.2678 -47.938 26.8628
    -16.9642 -39.6471 39.0954
    -16.8624 52.317 106.751
    -16.6275 -35.978 23.6799
    -17.4115 -40.8091 29.3521
    -16.5791 117.099 120.002
    -16.8772 109.586 54.0257
    -16.8147 -50.7828 60.8259
    -16.4338 89.656 96.4994
    -16.8771 117.859 66.6259
    -16.5677 18.6264 101.697
    -16.6606 -2.35875 160.966
    -16.1799 104.01 7.91525
    -14.6126 105.93 166.424
    -16.5352 -39.4839 63.3085
    -15.8842 -38.7176 104.682
    -15.229 -106.093 197.174
    -16.7702 5.05613 160.795
    -15.4406 115.931 19.2484
    -15.9829 112.963 14.6256
    -15.6225 -48.5098 138.064
    -16.9493 116.562 30.591
    -16.4058 109.552 92.5122
    -15.6703 119.09 129.573
    -18.5537 78.7563 109.695
    -15.2716 -52.3893 146.794
    -17.2011 -40.184 83.8108
    -15.7618 112.609 57.1075
    -16.1918 98.3872 171.69
    -16.6441 108.471 21.2492
    -16.0998 116.4 69.8466
    -16.4977 106.17 12.3834
    -15.9248 -20.9078 76.9647
    -16.7293 106.626 67.9751
    -16.3923 111.901 50.7732
    -14.299 -43.5472 5.12272
    -16.3795 56.9863 109.024
    -16.5841 -13.3723 81.0916
    -15.9401 116.214 71.0186
    -16.023 109.09 23.7607
    -16.5219 111.131 80.3006
    -12.8405 -42.5773 5.21438
    -16.4931 -24.7262 74.2814
    -15.993 -37.7049 30.1335
    -15.6599 107.839 93.4882
    -16.2475 117.714 145.852
    -16.4299 113.67 74.4426
    -16.3929 -39.7943 58.9737
    -15.2546 116.253 3.85649
    -16.812 -35.6053 88.9153
    -14.8544 -33.0226 17.1173
    -16.3136 -9.99134 83.3923
    -15.9338 111.73 30.182
    -15.506 -48.7306 39.2801
    -16.2557 112.217 34.809
    -14.8372 -46.4586 17.5426
    -14.7314 -44.8598 15.0445
    -16.1635 115.457 27.0974
    -16.2564 114.124 33.2759
    -15.7332 90.5071 94.2271
    -15.597 114.779 11.498
    -16.2862 117.87 6.89208
    -15.781 -38.6144 38.1388
    -16.0929 108.403 79.2679
    -16.0239 111.005 54.4481
    -16.1183 109.837 100.603
    -15.722 116.204 67.1915
    -16.1857 -31.7579 90.893
    -15.2973 110.26 27.3669
    -15.8302 -48.8485 154.889
    -15.8374 -50.8945 150.889
    -16.2948 -49.3242 32.9464
    -15.9903 61.8743 111.862
    -15.9867 -46.7453 21.6434
    -15.5355 108.671 58.2727
    -15.3956 -8.07766 85.8774
    -15.6748 113.933 18.4632
    -15.9413 111.823 73.3632
    -15.663 119.147 137.432
    -15.999 109.006 86.3222
    -14.2443 -38.2243 161.783
    -16.0247 109.06 19.8904
    -15.3419 92.5317 90.14
    -15.5595 105.466 83.2744
    -15.1067 -49.9598 140.673
    -15.5499 108.107 12.4853
    -15.964 -45.7866 112.011
    -15.2938 -2.83106 162.608
    -15.9224 89.964 98.8795
    -15.4348 -49.395 52.4784
    -15.4275 111.568 158.897
    -14.4057 105.13 8.49034
    -14.9174 -32.433 21.1621
    -15.4874 -39.3109 62.0542
    -15.8374 115.678 152.862
    -15.6569 39.7408 163.45
    -15.2692 -38.6555 25.5737
    -15.5369 110.795 15.5495
    -15.0357 -39.9778 27.4851
    -14.1593 -104.615 194.571
    -15.1428 -49.5468 72.9393
    -15.2086 -32.9848 19.0278
    -15.4302 -114.094 176.857
    -14.3427 -46.6918 161.337
    -13.2016 90.9715 101.208
    -15.6697 107.575 68.6615
    -14.635 111.348 59.1411
    -15.0548 -39.4 30.264
    -15.3976 -115.258 175.994
    -14.9347 111.308 69.3332
    -14.8905 -37.6685 64.9488
    -13.3286 -106.294 194.947
    -14.7396 106.71 92.4339
    -14.6624 107.728 98.0356
    -14.9126 -5.67971 102.574
    -15.0874 109.357 71.1369
    -15.5919 -6.52837 101.335
    -12.8423 -102.335 193.865
    -15.3147 -111.34 176.755
    -14.8255 -37.1796 103.035
    -12.0367 -34.015 15.4251
    -14.133 -3.91683 102.596
    -15.1634 -113.75 178.208
    -14.87 69.7382 115.669
    -15.2221 -31.8385 98.2125
    -15.3809 54.4324 167.37
    -15.3696 -48.1151 124.586
    -14.7476 -40.753 83.1782
    -15.3551 -7.03571 90.1228
    -13.9155 -50.1633 133.05
    -15.1023 -112.846 179.374
    -15.3526 111.853 106.403
    -14.9433 110.014 67.1479
    -13.8009 101.738 -0.537457
    -13.5 -102.578 185.852
    -14.7156 116.909 9.20751
    -14.7061 48.4525 165.768
    -14.3598 -23.2389 74.6726
    -14.7413 109.077 63.6372
    -14.1341 -101.219 193.207
    -14.7089 -39.2451 56.4531
    -15.1204 114.088 3.0687
    -14.8301 -37.992 33.7765
    -15.1208 108.011 69.898
    -14.424 -17.5209 78.442
    -14.8779 107.202 77.8127
    -14.4524 102.082 88.043
    -14.1269 95.8743 87.5719
    -14.5953 117.904 121.926
    -14.1395 -51.705 62.7725
    -14.1552 -108.772 178.996
    -14.5784 112.136 21.6712
    -14.1935 -13.5111 80.0673
    -14.5358 -108.675 176.844
    -13.4241 -56.4883 162.622
    -14.5707 110.446 11.5784
    -13.5802 -44.3032 163.752
    -14.4515 -113.098 176.401
    -14.2175 110.486 64.9418
    -14.3026 114.918 22.7177
    -14.7663 114.926 2.30878
    -13.3519 -19.8086 163.931
    -14.4555 -48.0489 118.513
    -14.869 31.5702 163.024
    -14.5813 105.222 90.866
    -14.8056 109.897 58.1045
    -15.0018 117.941 7.27496
    -11.9725 -101.606 187.837
    -13.9933 -109.341 173.622
    -14.0856 112.569 25.085
    -14.3586 -39.2283 38.8734
    -14.0659 -10.221 82.1613
    -13.9199 -35.3362 88.1903
    -14.6053 107.893 73.5611
    -14.6405 -43.1282 106.73
    -14.0982 106.234 7.89638
    -13.7532 -116.338 177.198
    -14.6327 -111.395 174.514
    -13.7912 -116.317 178.417
    -13.7481 107.871 9.95764
    -14.5517 -46.5989 22.3166
    -14.6185 -49.2735 31.4534
    -14.0951 101.225 81.4902
    -13.4907 -39.3532 62.2383
    -14.3555 -39.5666 49.5223
    -13.9116 73.4627 116.29
    -13.8596 -33.8924 68.1766
    -14.2437 -31.1834 90.925
    -13.9235 115.732 3.25111
    -14.2243 115.185 113.745
    -12.9969 -115.888 176.953
    -12.7384 -116.82 175.734
    -14.1575 9.80021 162.404
    -13.8224 -51.9069 66.9933
    -13.4485 -102.059 187.294
    -14.0176 -100.786 185.824
    -13.8283 -46.2094 75.8066
    -14.3711 -50.04 160.81
    -14.2473 -112.803 173.24
    -14.3642 80.4857 110.314
    -13.8739 119.282 139.062
    -14.3182 65.9787 174.065
    -13.9102 -111.086 175.22
    -13.7075 2.21357 163.378
    -13.4876 111.751 9.73483
    -14.2902 71.9882 175.723
    -13.7595 -37.1395 102.149
    -12.443 -36.1875 23.6158
    -13.0961 93.3016 98.0831
    -13.1623 -21.0229 76.7231
    -13.375 111.255 2.42544
    -13.5161 -103.34 179.383
    -14.1944 26.6124 163.102
    -14.2514 -49.3437 53.0942
    -13.2458 -105.926 176.589
    -13.2464 -8.20686 164.857
    -13.4809 -48.3342 38.18
    -13.2102 -32.38 96.4393
    -13.8819 102.025 83.9961
    -16.1181 8.27524 102.89
    -11.6003 -42.1106 6.63789
    -13.4936 -98.9075 187.453
    -13.2703 -116.178 179.807
    -13.719 -109.188 171.687
    -11.4969 -24.2568 166.033
    -12.9652 -32.0781 19.8491
    -13.7773 -41.6361 47.929
    -13.7151 -41.5871 39.3052
    -13.354 -110.779 180.919
    -13.5847 -39.4953 35.2263
    -13.4868 -29.913 93.4627
    -12.5497 16.7557 99.2092
    -13.5624 -56.3582 146.026
    -12.2013 -34.4824 164.786
    -13.7019 114.981 7.18264
    -13.8671 79.85 176.061
    -13.6798 -114.836 177.291
    -13.626 111.853 107.379
    -13.1374 -48.7126 34.9186
    -13.0629 93.5519 94.9237
    -13.296 -40.5887 57.8513
    -13.2982 108.2 102.94
    -13.1059 -104.186 181.089
    -12.8148 105.165 99.6779
    -13.7788 -30.4485 94.8033
    -14.4439 -40.0636 29.184
    -13.0076 -38.972 31.7835
    -13.3716 100.519 91.8611
    -12.9841 105.361 0.459967
    -13.4572 115.12 7.80233
    -11.0903 -34.0894 15.7148
    -12.7982 -115.713 173.201
    -12.6559 -113.503 173.479
    -13.5794 86.7131 175.27
    -12.4803 -48.3913 73.052
    -13.1854 109.507 7.73784
    -13.3125 -112.759 171.042
    -12.9825 -49.4245 56.9612
    -13.2205 -48.6242 52.6734
    -13.4041 -49.1331 123.888
    -12.7943 96.1078 91.2518
    -12.1773 -26.4703 73.4582
    -12.3357 -44.4152 53.7858
    -12.5016 -40.7875 26.4547
    -13.4379 61.8842 171.708
    -12.9393 110.07 8.17071
    -12.6449 -61.3144 156.197
    -12.4134 103.681 -0.248256
    -12.8688 -38.6035 83.2203
    -12.9895 -46.2105 24.3303
    -13.2335 112.242 1.76798
    -12.3641 -98.8297 183.002
    -12.1761 -116.999 170.358
    -12.7623 119.469 134.4
    -13.0896 -38.7785 25.2396
    -13.1979 -41.4082 35.631
    -12.6308 -52.7039 135.973
    -11.3491 90.0097 104.545
    -13.3068 21.5564 162.95
    -12.4176 -47.7754 29.7473
    -13.6197 41.4351 101.694
    -13.429 91.5941 174.452
    -13.007 28.895 99.6137
    -12.5191 -45.4341 19.0428
    -13.018 -45.5216 110.273
    -12.449 -104.889 194.357
    -12.3399 -108.302 162.557
    -12.176 108.584 163.926
    -10.7731 -32.2112 17.1254
    -12.1635 -105.135 181.77
    -12.5179 -44.3726 48.4433
    -12.6295 -100.499 180.149
    -12.2079 -42.1945 105.638
    -12.9669 47.5019 103.284
    -12.9237 -101.623 184.061
    -12.0017 -98.5424 188.912
    -12.2693 110.628 4.31324
    -12.4275 112.01 1.81677
    -11.457 -29.03 90.8626
    -12.2144 -112.959 181.832
    -12.785 98.7392 90.2428
    -12.9541 -6.96443 89.3727
    -12.2899 -98.5426 176.044
    -12.1225 -105.271 191.976
    -11.5331 -42.8528 6.0724
    -11.1107 -102.291 188.901
    -12.059 -34.2219 23.1596
    -12.9241 -8.59292 84.8001
    -12.2746 -101.5 164.201
    -11.714 -50.1804 61.5414
    -12.6298 21.6539 99.0447
    -11.7386 -117.553 175.823
    -11.8354 -56.8256 168.074
    -12.4672 85.7115 107.481
    -12.3927 -43.7876 76.2316
    -12.3344 -42.0076 28.9435
    -12.5022 -51.0325 130.85
    -12.1597 117.003 120.024
    -11.4312 -41.5016 62.8119
    -12.718 52.4878 105.464
    -12.3629 -46.4053 45.1702
    -12.1154 -47.1041 56.5341
    -12.354 -40.7036 78.9128
    -12.1031 -98.3891 167.287
    -12.4437 -39.4069 63.5801
    -12.0663 104.423 98.8229
    -11.9375 -39.4289 101.928
    -11.8093 106.675 1.18698
    -12.3537 58.6427 170.522
    -12.0274 -43.7611 15.556
    -12.4525 -44.0577 38.0383
    -12.072 -46.2163 38.0194
    -11.7588 -118.321 165.08
    -11.885 96.3443 95.8556
    -12.1339 -60.206 146.884
    -12.1252 -31.2868 95.1507
    -10.4846 -6.6873 98.7159
    -11.3051 119.029 129.237
    -11.7378 -18.6514 79.0196
    -12.3515 -112.446 163.41
    -11.2135 102.064 99.231
    -12.4052 -102.431 185.71
    -11.5858 -44.3913 16.5148
    -11.906 -96.826 181.871
    -11.6744 56.2531 107.719
    -11.9318 -35.9171 68.6213
    -12.0709 -103.841 189.109
    -11.4434 9.91063 164.114
    -11.9627 118.855 146.086
    -11.1658 -99.2089 189.915
    -12.2012 102.076 170.969
    -11.8978 -44.4877 27.1668
    -11.5302 -106.78 184.257
    -11.4138 -63.5847 165.554
    -11.9919 114.57 114.365
    -11.6868 -28.9071 93.0672
    -10.4297 -8.43388 168.144
    -9.5331 101.094 172.203
    -12.0981 -0.991135 165.139
    -11.746 -104.44 185.702
    -11.3861 -65.9881 153.341
    -12.181 62.4976 111.908
    -11.8667 -47.56 34.176
    -11.337 -44.3937 34.7019
    -11.3847 -53.7193 168.602
    -11.4211 -42.1768 33.3906
    -11.389 -11.878 81.5865
    -11.4196 -39.0571 23.8652
    -11.7895 -116.831 174.317
    -10.7686 98.5657 99.1639
    -11.7382 -44.6772 57.4619
    -11.5216 -42.866 23.041
    -11.7834 2.03493 100.038
    -11.0318 120.146 138.85
    -11.202 -115.832 159.029
    -11.6963 -50.763 67.6334
    -10.8115 104.254 102.654
    -11.1092 -59.0637 139.573
    -9.55401 109.913 163.057
    -11.2344 -95.2199 165.118
    -11.3506 -104.108 158.952
    -11.0911 -45.3857 30.6868
    -11.4754 -93.4546 178.914
    -12.2752 -39.2183 65.3677
    -11.5645 -32.6549 21.1208
    -11.6202 -54.0315 134.349
    -11.4411 116.508 153.444
    -11.557 51.3092 169.177
    -11.6356 16.6626 163.66
    -10.4601 117.901 124.831
    -11.6851 42.7995 166.999
    -10.556 -44.324 108.817
    -8.99376 70.0548 115.397
    -11.0761 -96.5551 186.43
    -11.6964 -40.6423 31.4717
    -10.2466 -43.0615 18.015
    -11.0562 -99.5366 159.724
    -11.6039 -66.6412 160.893
    -11.5516 -40.4422 75.5657
    -10.9958 -114.891 181.845
    -11.7127 -32.4265 21.9084
    -11.7972 -97.1201 175.883
    -11.0237 -29.5369 73.4122
    -10.8203 110.2 109.116
    -10.9395 -69.6133 167.327
    -11.1862 -45.9922 34.0987
    -11.1345 -22.6588 77.4191
    -10.6375 80.442 113.091
    -11.2862 -48.9788 69.9652
    -11.2567 -32.5812 15.6478
    -11.3292 -47.2715 72.9676
    -11.3192 -47.8119 116.75
    -11.199 -38.0443 73.2093
    -11.0421 94.6405 100.508
    -10.66 -93.9228 182.747
    -10.524 -103.998 190.032
    -7.37629 105.642 170.186
    -11.4283 -36.8076 70.2668
    -9.80472 -105.135 188.646
    -10.6683 -27.0032 91.4648
    -11.0161 -62.4924 145.107
    -10.5465 -9.63992 84.4427
    -10.6138 -68.3988 167.737
    -11.1677 36.3266 166.044
    -10.2956 -88.7176 173.235
    -10.6787 -116.331 175.189
    -11.0715 -51.5367 128.702
    -9.29073 -14.1629 169.127
    -10.548 -33.0913 82.298
    -10.0337 -107.53 186.747
    -10.3956 -42.272 169.085
    -10.3838 119.932 134.391
    -8.18163 76.1982 117.137
    -10.4593 -119.21 176.617
    -10.3062 -49.2831 66.492
    -10.7865 -50.0327 124.028
    -10.504 -116.501 157.633
    -11.1449 -41.9826 65.2822
    -8.85208 79.646 114.751
    -10.2096 -41.9358 16.3537
    -9.62409 -41.7178 7.2858
    -11.2598 -7.3154 88.9229
    -10.867 -48.0077 60.7838
    -11.0025 10.7837 98.9026
    -10.4021 -75.5171 164.879
    -9.19153 -125.893 160.09
    -10.7551 -45.3926 60.9414
    -9.73962 -123.103 165.518
    -10.8047 -93.0048 173.403
    -10.0741 -30.3944 80.265
    -10.2936 -120.105 174.432
    -10.6907 -42.9132 104.578
    -9.65576 -90.0409 167.883
    -10.2021 -36.3915 22.091
    -10.3688 -73.6515 168.88
    -10.6941 -41.0798 67.6235
    -8.94903 -118.604 179.168
    -9.92329 -106.785 153.708
    -9.84345 -35.6575 13.9623
    -10.5172 -45.3698 72.305
    -10.2466 -42.5171 70.4294
    -10.5644 -47.075 70.3719
    -10.6231 31.6056 165.529
    -7.09448 108.834 166.415
    -10.3967 -44.2268 68.9346
    -10.4085 -34.7635 20.2249
    -10.0952 -89.6208 177.12
    -9.94925 114.44 116.79
    -10.1435 -94.4347 162.948
    -9.10319 -13.0218 82.9428
    -9.59179 -92.9708 168.961
    -10.3808 -68.0855 151.478
    -10.2669 -88.4505 170.054
    -10.0486 -101.166 190.344
    -9.97206 -35.0136 20.8651
    -9.9737 -114.233 154.588
    -8.01256 -46.1178 114.096
    -10.2878 -72.9847 160.498
    -9.45969 -33.2666 169.942
    -8.92275 -97.6656 189.169
    -10.2857 3.21381 165.538
    -10.1338 -55.1257 132.931
    -9.5671 -66.6918 172.909
    -9.99552 -41.4777 20.2408
    -9.68298 -19.6046 81.0928
    -10.0835 -29.6682 93.6192
    -10.0068 -82.812 170.613
    -10.1686 -37.1676 98.6251
    -9.17882 86.5151 109.737
    -9.23625 111.792 113.179
    -9.99847 -46.7687 65.3727
    -9.62581 -87.1426 174.722
    -9.41556 -39.5821 9.37262
    -9.70149 -84.1792 167.483
    -9.78234 -25.189 87.9899
    -9.58633 -38.3049 18.3982
    -8.5808 -39.7346 8.66561
    -9.0466 -24.4103 80.1034
    -9.4459 -83.0802 174.036
    -9.37228 -97.011 157.855
    -9.06471 95.3079 103.158
    -9.77945 -79.8291 171.706
    -9.62986 -64.2736 144.631
    -9.70728 -34.5301 13.8705
    -7.10115 -49.8245 176.753
    -8.16389 27.0619 165.631
    -9.51809 -74.1354 158.181
    -9.45661 -23.8035 91.1994
    -9.60112 -59.5024 137.968
    -7.21734 -115.48 183.57
    -9.23185 -102.391 153.744
    -8.66839 -117.528 154.985
    -8.52007 -123.275 156.939
    -8.80906 -74.304 173.078
    -8.19111 -23.5136 170.509
    -9.46653 -25.9911 92.3544
    -8.36864 -36.7702 11.7312
    -9.44614 -40.7876 100.762
    -7.29774 -87.329 179.55
    -9.11745 -82.6361 164.282
    -7.70099 -34.4044 95.6792
    -9.39174 -68.3003 149.141
    -9.05007 -40.8402 11.8606
    -9.19886 -76.2926 172.859
    -8.04489 98.3549 103.593
    -8.86196 -38.2982 15.0226
    -9.02027 -21.5385 86.1782
    -9.21851 -27.7502 93.431
    -8.8272 1.9761 97.8344
    -8.97653 -34.5385 14.5885
    -9.26108 -8.91008 87.5333
    -7.24523 -122.997 154.003
    -8.29655 -20.238 85.2669
    -9.06946 -111.046 185.848
    -8.40708 91.3612 107.696
    -8.56486 100.96 103.533
    -8.31107 -103.008 189.917
    -7.41592 -56.0516 176.759
    -8.54366 -92.578 165.344
    -9.09133 -63.7666 174.395
    -9.04646 113.056 159.137
    -8.43074 -51.207 124.627
    -8.96624 -4.77244 98.3552
    -8.20779 -126.409 168.619
    -8.46533 -99.6776 189.997
    -8.02039 -111.479 150.712
    -8.82347 -94.2479 186.162
    -8.76407 -106.371 151.586
    -8.7711 -48.3394 118.739
    -8.75534 -19.5712 83.0441
    -8.7602 16.8291 164.907
    -8.75556 -1.11971 168.421
    -7.7856 -93.0938 162.528
    -8.65555 -8.01914 91.8239
    -6.44861 21.7686 165.384
    -8.18839 9.84085 165.606
    -8.19659 -99.6761 154.478
    -8.54106 41.6306 100.063
    -8.26128 30.0483 97.6987
    -8.2372 -55.0949 131.391
    -7.91264 -15.6426 84.178
    -8.10017 -130.832 159.812
    -7.39954 -73.0207 152.715
    -8.26301 -77.3821 158.563
    -7.24703 -106.769 189.539
    -7.45829 -84.7259 177.84
    -8.09121 47.9788 102.12
    -8.02113 -27.7638 92.8237
    -7.36706 -115.982 153.167
    -7.24999 -20.6883 91.9273
    -8.24033 -5.63661 169.923
    -7.89105 20.7131 96.6972
    -8.20895 73.35 177.308
    -7.71099 -60.3292 138.206
    -7.34944 -130.499 155.054
    -8.13457 63.0873 174.454
    -6.82722 -118.69 180.513
    -8.11163 67.6234 176.04
    -6.85704 -31.8645 173.213
    -7.68228 -102.335 152.441
    -6.23764 52.2504 104.251
    -7.44731 -17.6538 85.5043
    -7.41 -10.0229 89.6497
    -7.9881 80.744 177.063
    -5.79703 63.8083 112.514
    -8.12822 -65.4591 144.996
    -8.11209 58.6864 172.697
    -6.65797 -94.2716 158.523
    -7.42749 107.929 110.128
    -6.31328 119.654 134.243
    -6.47032 120.166 139.066
    -7.84669 -139.703 154.416
    -7.47477 -132.735 160.972
    -7.48582 43.1604 169.455
    -6.47822 118.83 130.131
    -7.73085 87.1421 176.148
    -7.71884 -86.9436 163.319
    -7.53172 -25.3408 93.5406
    -7.19113 74.7851 116.781
    -6.13114 -44.9633 106.387
    -6.84842 -71.3983 178.711
    -6.51633 119.358 145.793
    -7.59034 -108.183 164.611
    -7.5883 -8.04745 96.9156
    -7.37144 -107.941 150.61
    -6.89283 -9.46256 171.278
    -7.38157 -19.5583 87.4824
    -7.12078 -140.5 152.583
    -6.87256 -131.187 165.259
    -8.03979 92.5368 175.005
    -7.45565 94.0235 106.622
    -7.37379 -83.0516 160.973
    -7.15225 -140.597 157.306
    -4.79774 117.009 126.313
    -6.9627 -137.408 155.756
    -7.21733 -63.4515 140.69
    -6.62117 -41.685 99.8777
    -7.30216 -112.248 160.295
    -7.23814 -106.65 162.448
    -7.17521 -112.68 151.08
    -6.84697 -138.274 158.281
    -7.17307 -113.59 162.469
    -7.17287 -76.4487 155.959
    -6.46746 -11.9465 90.4261
    -7.13549 116.957 153.807
    -5.31022 -83.4041 181.512
    -7.15924 34.0969 167.405
    -6.40029 -129.281 152.093
    -6.88051 11.7219 96.7704
    -7.03673 104.671 107.669
    -6.32026 -119.136 152.816
    -6.34444 -88.209 160.466
    -6.59891 -138.965 155.308
    -5.65322 -31.6686 93.6783
    -5.71782 -86.3315 180.147
    -5.4248 -16.7406 173.286
    -5.84394 -51.759 124.193
    -4.73259 -46.9995 113.573
    -6.44415 -17.1657 91.7073
    -5.96494 -139.253 151
    -5.33666 -7.43272 96.6073
    -4.72711 -53.7149 129.439
    -6.25468 -24.6421 93.5639
    -6.75815 -116.892 156.488
    -4.22423 -89.9317 186.86
    -5.3044 -128.328 171.192
    -6.65304 -111.984 158.428
    -6.6049 -140.896 154.885
    -6.34077 -129.461 150.381
    -3.61585 -95.084 189.409
    -6.52 -139.091 156.061
    -6.43999 -141.818 157.548
    -6.62552 -134.534 151.242
    -5.88064 -138.293 160.851
    -6.21121 111.964 162.107
    -5.67354 -142.514 151.631
    -6.37383 -63.5163 179.254
    -5.98149 -74.1515 150.682
    -4.68851 -43.9789 102.293
    -6.23674 -105.425 151.196
    -5.91484 -135.73 156.331
    -6.99055 -118.73 157.403
    -5.71411 -11.1926 96.3787
    -5.85557 -57.8306 179.367
    -5.77526 -91.7003 159.093
    -5.39542 -137.456 154.932
    -5.91954 -20.9509 94.9457
    -5.94695 -92.9592 187.425
    -5.67824 -137.91 146.963
    -5.27647 -97.2458 155.897
    -5.18696 -126.796 150.433
    -4.96294 -87.3328 183.221
    -5.14227 -120.146 153.997
    -5.9126 -102.733 191.044
    -4.79421 -135.908 146.658
    -5.28672 -142.093 149.814
    -5.65627 3.16745 96.3775
    -4.08459 -22.5337 174.647
    -5.95676 -119.915 159.746
    -2.92311 -115.399 151.069
    -5.32946 -134.889 146.775
    -5.8567 -109.376 167.126
    -4.53615 -34.7251 94.1532
    -5.38933 -143.019 153.34
    -5.18361 -80.4542 154.17
    -4.79552 -71.3461 181.805
    -5.80715 -106.02 160.945
    -5.8052 82.4916 111.68
    -5.3879 -123.407 158.832
    -2.54464 -27.246 176.26
    -5.83277 100.883 106.905
    -5.4021 -16.1179 94.1936
    -5.73487 1.17092 169.491
    -5.87862 -125.616 153.348
    -5.68659 -3.39035 171.093
    -4.61544 -125.352 174.347
    -5.0112 -140.16 153.845
    -5.60562 77.9568 112.416
    -5.59748 81.4102 114.314
    -4.74567 -116.294 154.505
    -5.78736 -130.201 150.334
    -3.9332 -98.8898 155.012
    -5.11639 -54.5055 179.71
    -5.20841 108.844 168.532
    -5.20545 -65.2115 138.966
    -4.80546 -128.451 154.354
    -5.1065 -88.411 158.314
    -3.95263 -48.4241 117.908
    -5.32181 -14.4482 96.5535
    -5.31584 -114.366 165.779
    -4.98288 -132.706 150.322
    -3.8051 -138.916 144.492
    -2.09866 104.017 172.625
    -4.25108 -34.0472 175.986
    -5.28723 -111.307 150.635
    -5.27011 5.84143 167.628
    -5.19324 84.8682 114.361
    -5.10035 80.4257 116.092
    -4.79222 -134.767 147.566
    -4.35864 -114.155 151.755
    -4.67694 -108.504 189.861
    -3.96626 -143.765 151.448
    -2.98433 -101.401 154.049
    -4.30408 -129.703 147.747
    -5.07647 11.0715 166.658
    -4.97872 17.3026 165.905
    -4.55343 -127.194 150.055
    -4.95824 80.9936 109.562
    -2.6457 -132.249 143.879
    -4.88908 111.428 164.704
    -4.41276 86.6014 112.094
    -3.87688 -137.888 145.434
    -4.8156 78.1154 110.001
    -4.49232 -73.8582 147.467
    -4.06826 -106.86 158.547
    -4.53809 -17.4334 96.6052
    -4.37662 -142.719 147.44
    -1.96425 -118.562 182.087
    -4.44495 -11.5413 96.6205
    -3.64293 -137.239 144.441
    -3.14401 -55.7059 130.711
    -4.62467 117.034 153.799
    -4.60648 -41.3231 99.5203
    -4.60175 84.4898 110.186
    -3.64357 -103.308 191.526
    -4.11848 -122.155 161.463
    -2.69435 96.9568 110.493
    -4.32816 77.6742 116.624
    -3.86759 -143.831 155.826
    -3.82173 -137.543 149.489
    -3.1288 89.7151 113.526
    -4.26738 -141.895 159.147
    -4.25588 -37.9461 97.4183
    -4.13764 -132.479 147.031
    -3.56471 -6.24087 95.7681
    -3.11118 -28.8468 94.0286
    -3.24028 111.429 117.36
    -3.46508 -80.1473 183.796
    -4.38593 -103.313 163.951
    -3.98581 -139.007 146.656
    -2.73706 108.249 114.369
    -1.29847 -122.533 177.867
    -4.15366 -98.9024 162.885
    -3.79196 -122.898 150.606
    -2.92777 92.1889 112.834
    -2.55513 93.9408 112.002
    -3.82279 -133.104 154.167
    -4.10547 75.3229 113.175
    -3.78105 -92.0836 156.998
    -3.90221 -87.1523 184.125
    -3.13382 -99.8171 191.359
    -3.58841 -127.826 148.686
    0.0276241 58.3776 108.579
    -3.9681 -99.8653 163.992
    -4.14577 114.022 159.789
    -4.17433 36.585 98.1221
    -3.85114 -98.8845 161.299
    -3.99242 28.4608 96.283
    -2.15686 -105.803 153.077
    -2.90112 -36.9863 95.7824
    -2.93443 -86.7349 185.555
    -3.97697 43.3558 99.8181
    -3.61875 -53.5995 180.603
    -3.4025 -136.663 164.625
    -3.72528 21.5286 95.4221
    -3.72469 59.6909 174.423
    -3.79029 49.5804 171.841
    -2.15601 -139.136 144.973
    -3.5565 47.8632 101.437
    -3.80293 63.8734 175.981
    -3.52016 -134.822 145.329
    -3.277 -64.9977 182.24
    -2.23829 -44.8708 105.843
    -2.82728 -139.315 147.638
    -2.31688 -139.409 144.005
    -3.69234 -100.646 159.853
    -3.1946 -88.8851 156.939
    -4.03134 -65.3373 138.084
    -3.32377 -50.3648 121.715
    -3.3908 112.462 167.033
    -0.530259 74.3429 178.453
    -3.60469 68.601 177.336
    -3.30692 -109.507 151.624
    -2.48261 -24.7457 95.7395
    -3.3779 118.617 132.979
    -3.66683 81.5575 177.492
    -3.4813 81.0329 108.152
    -2.94616 75.9638 110.488
    -3.13298 32.0608 167.888
    -3.27302 7.9555 95.933
    -2.59729 -120.096 152.675
    -3.40498 78.2873 108.511
    -1.43818 -136.003 165.666
    -3.32806 74.8196 116.303
    -3.24572 -45.5188 108.731
    -2.86831 111.37 169.204
    -2.6446 -81.8241 152.45
    -2.16764 94.192 175.155
    -3.24738 -103.228 165.37
    -2.38953 113.426 164.711
    -2.57582 -143.642 147.48
    -3.21332 85.0509 108.666
    -3.08711 68.5781 114.381
    -2.17066 -32.1909 93.6944
    -2.75424 119.181 139.703
    -1.14921 -128.176 148.163
    -1.88661 -47.1029 115.718
    -2.67885 112.607 163.491
    -2.7329 74.3045 114.478
    -1.78698 -7.4049 95.5607
    -2.21553 -77.7441 148.868
    -1.79809 -137.144 144.289
    -0.681594 -132.279 145.085
    -2.78188 -114.758 154.381
    -2.89877 103.874 111.538
    -2.45159 64.866 112.703
    -2.87386 -106.315 158.222
    -2.09833 118.435 146.198
    -2.24126 -99.8868 159.84
    -2.01299 -107.143 190.451
    -1.43708 -73.7428 144.548
    -2.82169 -129.5 158.493
    0.281764 28.6277 167.343
    -0.982979 -116.119 184.424
    -2.73905 87.1799 110.414
    -2.0128 -139.831 149.815
    -1.31089 -127.74 172.89
    -1.69687 -139.413 144.062
    -2.65418 -7.78622 173.781
    -2.00864 118.679 163.85
    -2.73357 1.63929 170.545
    -1.97658 119.674 165.004
    -2.06581 115.903 127.851
    -2.53605 -49.1753 181.534
    -2.4907 -33.6083 178.029
    -2.3241 -139.005 151.676
    -2.3943 -14.7099 175.334
    1.41756 -98.6631 190.941
    -0.830374 62.3065 111.09
    -2.20504 70.2446 111.321
    -2.37273 7.30102 168.113
    -2.31165 -62.3871 183.535
    -1.49901 114.489 168.729
    -1.56651 -17.3331 98.2156
    -2.33233 117.139 153.532
    -2.18262 -21.1066 175.913
    -0.240027 23.4689 166.364
    0.0314012 -142.474 159.558
    -0.542601 -139.671 144.71
    -1.63906 89.5589 114.232
    -2.08309 -38.9717 98.6144
    -1.54552 -2.41007 95.3517
    -0.181685 17.7972 166.585
    -2.14323 -96.5775 155.023
    0.08468 13.3834 167.183
    -1.86464 -90.9011 188.16
    -1.87315 -74.5873 184.951
    1.03856 -143.687 157.654
    -1.92187 -43.5905 102.919
    -1.68871 -58.3716 131.9
    -0.398567 114.76 158.544
    -0.369722 -94.1045 188.835
    -0.759208 -143.787 150.176
    -1.89732 -41.5323 100.567
    -1.13031 71.4648 110.698
    -0.594445 -65.9372 137.308
    -1.72585 117.957 134.356
    -0.479123 -125.29 149.498
    0.289301 -140.716 147.07
    0.136011 -144.496 154.967
    -1.23125 66.4642 109.677
    -1.59389 -90.9405 154.357
    -1.0031 118.329 162.732
    -1.02548 113.397 169.518
    -1.1702 -118.648 149.789
    -0.24079 -71.2768 142.2
    -1.55992 -136.33 143.012
    -0.343266 -110.818 156.062
    -1.77294 -129.031 147.448
    -0.152671 90.0192 114.751
    0.0327821 112.779 161.896
    -0.812623 -133.128 142.834
    -0.0911426 78.1725 108.309
    -1.07175 75.1583 110.952
    -1.0628 -131.288 143.499
    -0.0117869 80.7352 108.114
    -1.24125 -115.271 166.362
    -1.21475 -128.573 160.01
    -1.55235 -113.343 151.412
    -1.29326 -120.732 163.406
    -0.860233 -99.7304 154.36
    -1.17019 85.0729 108.614
    -0.275302 -86.7619 186.399
    -1.14526 -110.534 168.013
    -0.10223 112.594 163.302
    -0.630044 157.618 145.737
    0.472961 -49.2112 121.098
    -0.824309 -138.737 153.052
    -0.590276 -78.4384 147.598
    -0.375118 87.0068 110.174
    0.00998203 -22.1619 98.0307
    0.0669634 -24.7441 97.2706
    -0.558068 157.372 144.072
    0.00869639 116.342 153.56
    -0.00917682 115.674 131.443
    -0.0146003 112.423 123.977
    -0.0441961 92.7502 114.304
    -0.288595 115.386 163.298
    0.00173241 107.837 117.357
    -0.457623 -91.6254 153.368
    -0.0411054 117.087 136.364
    -0.0096817 103.212 114.268
    0.0146636 -39.542 100.433
    -0.00981236 117.364 141.087
    -0.24547 134.082 158.757
    0.264327 94.9861 113.332
    0.00523043 97.4309 113.523
    0.0238249 -29.3597 95.0234
    0.022706 117.183 147.224
    -0.0449383 -32.4392 94.1817
    -0.0409816 66.2238 110.972
    0.00112371 -44.0669 106.497
    -0.162345 -140.413 150.607
    0.0271107 -42.1406 102.649
    -0.0080679 -34.9963 94.7561
    -0.79508 -119.529 152.874
    1.03109 -107.964 153.647
    -0.00822055 -38.1471 97.8596
    0.0697045 -45.0344 109.889
    -0.453197 -102.797 166.384
    -0.0558858 -140.09 148.147
    -0.383157 -103.768 191.243
    -0.281012 -99.2587 165.735
    2.77461 -139.768 145.834
    1.1462 -119.616 149.653
    -0.051177 -97.2023 164.107
    1.16437 -113.614 186.178
    0.736542 -135.494 144.082
    -0.0635819 -76.9081 185.638
    0.0155947 -63.5039 184.378
    0.398888 -56.2394 129.879
    0.0584789 -53.0458 127.025
    0.00306064 -49.7935 182.504
    -0.0180566 -26.9584 177.367
    0.0631074 -16.6746 176.287
    0.537693 -17.3217 98.5076
    -1.33587 -13.862 97.171
    1.4297 -7.75573 95.5655
    -0.0114534 -6.95599 174.34
    0.0788613 1.44841 171.35
    -0.0708819 7.38199 95.7132
    0.482316 7.94794 168.337
    0.0470603 21.4855 95.0362
    -0.105469 29.6529 96.1231
    -0.162352 41.864 99.2237
    0.0321805 51.2485 172.469
    -0.151922 59.1631 174.741
    0.697318 64.9187 112.312
    0 64.2404 176.651
    0.7373 66.6005 109.276
    0 69.0908 177.951
    -0.00373661 81.3115 177.826
    0.375727 85.0988 108.823
    -2.38976 107.724 171.148
    2.01966 108.513 170.988
    2.1058 113.572 164.613
    0.479791 120.164 166.218
    0.29498 157.201 143.965
    -0.978111 157.864 144.565
    0.841864 -132.4 144.84
    1.13812 -101.368 191.782
    3.06996 -137.602 144.094
    0.136748 -97.3372 161.741
    1.61423 -131.566 167.257
    1.33846 -104.875 192.165
    0.262781 -99.9542 159.57
    1.28744 -138.531 162.352
    0.409869 118.754 162.297
    1.0056 -106.148 190.398
    0.975789 -128.998 147.338
    0.0200183 -127.211 172.785
    0.969959 -91.3105 153.185
    0.47524 -106.266 158.203
    0.505707 -128.434 159.889
    0.678405 -101.267 154.496
    0.389526 158.134 145.58
    1.90611 -125.582 149.875
    0.906448 -138.076 144.502
    2.56601 118.628 135.17
    0.743141 -143.896 147.885
    1.64381 118.403 163.268
    1.32967 114.969 168.624
    0.855334 -138.863 152.729
    1.04482 157.363 144.977
    2.73403 -128.315 149.03
    1.74112 -87.5911 186.042
    2.47814 -139.756 149.301
    2.72384 -130.249 146.682
    0.785431 74.5482 111.322
    1.42181 -90.3587 186.801
    2.12034 -119.395 180.727
    2.18979 87.1774 110.133
    1.08079 -78.3448 147.866
    1.48809 -108.419 188.717
    2.57003 -139.634 144.683
    3.48785 -140.004 145.057
    2.72069 -141.951 159.375
    3.1173 -13.6814 97.1201
    2.40602 104.239 172.519
    2.85378 118.653 146.545
    1.49025 -70.9848 142.333
    0.311453 -47.5397 118.174
    1.99236 119.77 164.91
    3.80623 -52.8512 127.886
    1.62432 -106.833 196.258
    2.07981 118.777 164.251
    1.45511 -95.2692 188.653
    2.17461 69.784 111.177
    2.53625 119.056 139.453
    1.88924 89.2789 114.107
    3.58402 -139.614 145.877
    2.59411 74.461 114.156
    2.14777 -98.8678 154.549
    2.15958 -89.131 153.862
    2.58961 64.9439 112.857
    1.93491 -64.4151 136.373
    1.89498 66.1936 110.991
    3.58367 -29.2169 93.7677
    2.66927 -135.821 144.871
    2.76643 117.812 131.261
    1.96965 -37.4039 96.2335
    3.1735 -32.1836 93.6269
    1.82457 -44.7907 105.832
    1.95494 -144.088 152.626
    1.97325 -106.496 194.545
    3.22873 -89.7812 184.913
    3.08296 -34.806 94.185
    1.89116 -78.6254 185.329
    3.80793 -41.3945 99.6083
    3.10216 -112.078 152.61
    1.91707 114.894 158.47
    3.47485 -44.0902 102.593
    2.41404 -103.248 195.856
    2.02023 -39.0489 98.7205
    1.93955 -105.76 197.501
    4.11266 -120.423 177.533
    3.14184 112.36 168.18
    1.91866 -69.6653 184.445
    3.19548 -124.68 173.04
    2.60967 -133.052 145.377
    2.89935 -143.758 148.4
    4.87039 63.7379 112.41
    3.66847 -106.18 153.981
    2.3329 -76.8586 148.201
    2.23668 -127.833 159.098
    3.09072 -105.363 191.071
    3.38179 -129.311 148.397
    2.95103 111.419 117.662
    4.56104 17.6202 165.983
    2.57779 -138.303 151.647
    2.25658 96.3555 111.166
    2.38364 -58.6549 183.047
    3.17622 -25.494 95.0619
    4.22563 -139.247 148.396
    3.46005 99.225 109.73
    3.13718 112.689 164.19
    2.32325 -26.0025 176.142
    2.4001 114.97 125.427
    2.44412 -17.1282 175.584
    2.33233 117.139 153.532
    3.48869 -17.1369 97.2955
    2.88381 -131.471 165.647
    2.37074 -142.076 154.4
    2.51935 -103.434 191.272
    2.39259 -120.744 163.56
    3.58196 -48.2896 117.704
    2.59308 -9.15869 174.221
    2.48304 -34.6178 178.291
    2.45843 -103.717 166.255
    3.15154 -106.046 197.582
    2.52425 -50.4098 181.787
    2.65167 -136.448 156.531
    3.40347 -138.471 159.769
    2.35454 -0.403662 171.48
    2.54345 -100.321 192.119
    2.8304 -82.3637 153.038
    2.67361 108.206 114.301
    3.5658 -106.466 159.299
    3.49556 -132.939 143.551
    2.65804 92.1293 113.222
    3.53105 -100.483 164.956
    3.84684 -101.027 160.81
    3.36566 -115.547 184.29
    2.98177 113.899 166.555
    3.89245 -119.525 179.688
    3.16462 71.2111 115.206
    3.50858 -131.404 144.714
    3.76841 -93.6684 186.222
    3.22055 7.72168 95.921
    5.1765 93.6363 175.095
    2.88352 -143.402 155.267
    4.51007 -46.8266 112.902
    3.28429 -136.063 158.403
    3.74814 -95.2332 155.99
    3.16971 -83.9246 184.654
    3.62724 -140.018 156.144
    3.92433 -85.2507 183.409
    3.22744 -57.617 181.506
    2.8871 -115.017 167.172
    3.83176 103.577 110.413
    2.71427 -120.271 153.275
    3.1742 -86.5352 155.605
    3.2823 75.2543 116.365
    3.96732 -109.587 202.297
    3.61589 -104.673 190.911
    4.23268 -136.834 150.269
    2.992 75.9791 110.49
    3.8429 89.2507 113.199
    3.07522 112.882 162.291
    3.904 -45.1989 106.89
    2.60106 -132.935 155.464
    3.76753 -117.404 151.123
    3.50887 -141.643 156.777
    3.65842 40.6487 169.828
    3.74357 -105.744 188.289
    4.08188 -99.7163 163.903
    4.04264 -99.7434 162.125
    3.99536 -102.4 196.049
    3.74949 -124.688 160.104
    3.37781 -139.958 158.08
    3.21332 85.0509 108.666
    3.91361 -107.635 200.791
    4.05987 -142.978 152.808
    4.14861 -137.069 145.741
    4.86955 -88.8213 182.172
    4.96336 108.703 168.922
    3.92553 -108.751 186.561
    3.28728 -97.7583 189.643
    3.93968 -42.9857 178.139
    3.40498 78.2873 108.511
    3.98389 -131.557 154.134
    3.85021 -29.2021 175.451
    3.4813 81.0329 108.152
    4.78834 -51.0449 122.649
    4.87789 -125.032 169.369
    3.93532 -55.7493 131.308
    4.78563 -120.502 154.688
    3.21976 -4.55234 95.5824
    5.3594 -127.606 151.937
    5.05989 82.2845 177.303
    3.72271 -118.881 181.554
    3.83806 -89.7274 157.048
    3.9539 -78.1075 183.079
    3.60469 68.601 177.336
    3.83287 -65.3474 137.927
    2.73555 52.2919 104.073
    4.94488 -136.676 147.917
    3.80032 21.2324 95.4348
    3.63873 74.2781 178.062
    11.5106 56.7165 108.002
    3.92077 -102.882 190.512
    3.71522 -110.136 168.751
    4.1827 -139.055 145.533
    4.11868 -99.8172 191.607
    4.9543 -140.762 156.965
    5.25057 -126.734 156.153
    3.83994 48.0257 101.544
    4.09104 116.508 126.111
    3.80293 63.8734 175.981
    3.69438 59.3692 174.308
    3.95861 52.654 172.458
    3.70586 -143.151 150.809
    4.00554 -24.1427 174.692
    3.88939 -104.028 165.219
    5.72436 -112.813 184.419
    4.34604 86.4769 111.849
    4.14763 42.2831 99.4911
    4.27317 75.6299 112.682
    4.85297 -35.1192 94.4788
    4.32104 -37.8622 97.3574
    3.89768 29.3785 96.4207
    4.38632 -73.8885 147.355
    4.65261 -20.1828 95.6278
    3.82265 -102.197 154.874
    5.09118 85.1856 114.321
    4.39626 -138.705 155.928
    4.8006 -9.76874 96.4482
    4.87098 -141.327 154.857
    3.87306 -113.108 156.219
    4.28793 95.092 109.287
    4.98777 -140.278 147.064
    5.06482 -132.485 148.802
    4.94234 -19.8826 173.919
    5.01759 -69.8049 181.452
    4.48696 113.052 119.044
    5.08208 -80.8166 154.289
    6.02675 -116.598 183.507
    4.57933 -132.764 144.604
    5.14818 -65.4183 139.082
    4.42496 77.9728 116.599
    5.26165 -108.663 202.465
    5.53921 -121.204 155.559
    4.83013 -139.541 152.093
    5.31427 -137.109 146.855
    4.66652 -97.6034 188.105
    4.25032 -117.674 177.65
    5.45886 83.9203 111.402
    4.61175 -120.755 161.541
    5.80601 117.038 153.911
    4.76007 -128.615 149.896
    4.67552 -107.042 159.885
    5.30891 -106.352 185.182
    4.85194 -131.338 162.6
    5.55109 -87.9745 158.164
    4.9358 -17.6478 95.9745
    5.32628 -130.849 148.808
    5.86907 -100.375 190.583
    5.47823 -82.1569 181.295
    5.14598 -110.182 205.585
    4.85004 -119.571 151.654
    4.8156 78.1154 110.001
    4.27498 -64.3993 181.376
    4.98859 -103.755 188.41
    5.38413 11.9555 166.433
    5.72385 -138.86 148.388
    5.81871 110.031 165.741
    5.74232 -97.1257 156.841
    5.71466 -9.31539 172.128
    5.07303 -133.903 158.103
    5.75124 -55.8335 179.343
    5.66648 -102.405 195.735
    5.05697 -137.901 147.217
    4.95824 80.9936 109.562
    5.77384 -136.381 148.666
    7.98582 102.155 172.172
    5.14095 -124.028 152.033
    5.24401 -106.192 198.714
    5.29144 81.4741 115.792
    6.0141 -99.7449 186.476
    6.26407 -91.3278 159.269
    6.29463 -109.12 183.402
    5.36761 -45.3045 177.637
    6.41904 -127.812 162.485
    5.26936 -118.623 178.8
    5.32055 -105.18 162.938
    5.61804 77.9807 112.492
    5.36554 -103.629 190.478
    5.80232 -127.885 152.042
    5.27011 5.84143 167.628
    6.91307 105.749 170.252
    5.43333 -12.5164 96.5532
    6.57093 -25.2777 93.3099
    6.51874 -97.9877 184.867
    5.92545 -131.174 152.425
    5.37274 -112.283 157.913
    5.57935 -114.572 152.762
    6.73519 120.215 139.041
    5.75569 -117.635 156.159
    7.06256 -90.6026 180.782
    6.38398 7.64068 96.662
    5.98555 -107.397 200.87
    5.71297 -118.184 177.291
    5.65672 -103.392 187.871
    6.86927 -119.268 173.805
    5.80448 -55.2361 131.936
    5.98899 -133.962 154.083
    5.54638 22.2648 165.596
    6.55102 119.702 134.294
    6.57667 -119.413 159.83
    5.85527 -74.7875 151.002
    5.65246 108.959 112.54
    7.09979 -46.6018 114.917
    5.98317 -132.493 149.103
    6.62283 -117.39 182.167
    5.68659 -3.39035 171.093
    6.40236 -118.096 180.975
    6.14492 -43.8415 102.926
    5.88673 -124.482 155.718
    5.73487 1.17092 169.491
    5.81388 -108.731 153.151
    6.13704 -12.3652 92.1414
    6.57861 118.797 129.903
    5.80364 80.7908 111.565
    7.23101 -118.463 154.951
    7.51846 -114.822 177.03
    5.82307 -114.622 164.675
    6.56604 -118.065 179.293
    7.1261 -116.136 180.782
    6.60936 28.8148 166.315
    5.95688 -130.936 156.915
    7.09515 -87.503 179.016
    7.39246 116.67 123.31
    6.3206 -61.487 137.777
    7.0412 -102.473 194.123
    6.56257 -122.881 168.145
    6.99716 -49.7998 176.904
    7.12073 -31.404 172.823
    6.16342 -129.226 153.693
    6.58158 -87.3965 159.774
    7.2087 -65.0652 142.483
    6.4514 -130.134 152.684
    6.32919 -16.8529 92.2233
    8.15946 -117.01 174.952
    6.21792 -10.1801 96.4281
    6.31931 -102.248 188.865
    6.37747 -101.863 185.129
    7.99949 -105.443 153.577
    6.74381 -105.766 195.247
    6.74659 -105.253 184.651
    6.33887 -109.29 166.976
    8.52145 -44.7857 108.129
    6.65351 -131.485 152.733
    6.39716 -63.5218 179.244
    6.57382 111.782 162.06
    6.99581 -123.439 154.799
    6.79971 111.444 114.727
    7.10885 -94.5926 159.603
    7.57625 -108.715 199.273
    6.87408 -70.8328 178.689
    8.14898 -106.293 193.22
    7.92442 -27.9984 92.7997
    7.20354 -79.763 176.643
    7.77657 -116.424 154.759
    7.5308 -106.281 193.289
    7.56508 -93.5805 182.034
    7.45702 -124.356 159.76
    7.66765 -110.018 182.698
    7.31912 -80.4152 158.823
    7.47047 -34.736 95.7642
    6.77802 -3.67906 97.134
    6.8592 -100.036 156.021
    6.847 -41.6546 99.8921
    8.30186 -55.1022 131.562
    7.99617 -117.441 180.798
    7.48133 -105.113 197.37
    6.98355 107.285 168.712
    6.95101 -118.079 159.299
    7.70287 -68.1868 147.351
    8.50207 -119.973 168.583
    6.93922 -112.768 160.847
    6.95552 -107.777 164.857
    8.04407 -30.5504 93.7786
    7.82822 -50.4235 122.666
    7.74415 -59.3132 137.152
    7.49852 105.571 107.868
    8.39353 -23.7784 170.267
    7.51342 -14.5668 88.3343
    7.94764 -22.3383 90.981
    7.35933 37.5674 168.161
    7.18346 -75.1994 154.904
    7.26684 -24.9072 93.7214
    8.25366 -114.041 182.882
    7.20914 -12.5791 171.166
    7.886 -103.561 182.406
    7.72471 -122.632 164.602
    7.25202 -9.75011 91.862
    7.68635 76.2996 117.15
    8.39825 -99.6158 179.584
    7.33099 -56.4296 176.934
    8.30657 -115.528 182.002
    7.85009 20.9291 96.6693
    8.03857 -121.842 157.263
    7.89652 -92.5302 163.146
    7.45565 94.0235 106.622
    7.5883 -8.04745 96.9156
    9.00607 -68.269 174.114
    8.25934 -10.7324 88.0321
    7.86584 119.269 146.402
    7.97361 -86.0727 162.987
    7.50907 78.3799 116.124
    7.96083 69.7755 115.236
    8.10799 -104.94 193.205
    8.20337 -79.6365 175.465
    7.88673 51.5039 171.178
    8.79376 -117.152 180.022
    8.63641 91.6838 107.283
    8.00276 -112.604 152.968
    7.90209 -63.9421 143.003
    8.28055 -112.878 179.047
    8.39901 -94.5748 180.706
    8.69827 -93.9776 165.331
    7.78152 59.1605 172.969
    8.03417 -107.723 180.268
    6.91647 83.5032 113.818
    7.9881 80.744 177.063
    7.98044 51.8133 104.221
    7.94518 98.1955 103.897
    8.0181 -109.262 152.852
    9.19464 -34.833 170.569
    8.81473 -83.8357 175.623
    8.45323 -109.825 181.372
    8.11163 67.6234 176.04
    8.13457 63.0873 174.454
    9.04652 2.00962 97.9647
    8.29561 48.0401 102.164
    8.20895 73.35 177.308
    9.38653 111.108 112.027
    8.24033 -5.63661 169.923
    9.07559 -47.15 116.156
    9.36331 -72.5892 171.861
    8.48378 -14.7192 87.2231
    8.33132 29.117 97.5693
    8.26198 -25.0652 3.25693
    9.49057 -103.46 154.621
    11.7603 115.297 116.551
    8.79894 41.1943 100.03
    9.172 -76.1083 159.173
    8.45306 -72.4222 153.917
    8.66994 -29.9044 3.07237
    8.58208 -91.7157 166.793
    9.43424 -88.2321 174.679
    9.5379 95.462 102.362
    9.14785 -14.4767 169.269
    9.7444 -44.2908 170.758
    9.13704 -94.2694 176.024
    10.1983 109.173 163.871
    9.53707 -81.9251 164.143
    8.48555 100.952 103.674
    9.14297 -115.136 180.552
    9.51868 -97.9111 158.623
    9.18009 -90.7702 177.198
    9.05367 -117.92 156.847
    11.2855 7.98153 164.4
    9.30117 -112.392 179.643
    10.1312 -43.1407 104.594
    8.81 21.7513 164.644
    8.6473 -8.10844 92.1605
    8.71567 -12.5933 86.5759
    9.64783 -118.753 163.687
    9.51967 -101.879 176.405
    8.86297 -14.9547 81.8911
    8.75556 -1.11971 168.421
    8.99145 -21.5678 2.37182
    8.79398 -27.3673 93.4248
    9.12771 -85.0586 164.564
    8.99554 -27.1924 5.8423
    9.1536 -94.6327 171.536
    9.0946 -113.921 174.814
    8.66782 -115.67 176.554
    9.00925 -13.3306 81.0592
    9.52878 -113.914 153.762
    8.88676 -51.6262 125.94
    9.71795 -4.44995 98.8761
    10.233 -117.572 159.524
    10.2825 -17.4073 6.78468
    10.3272 103.151 170.9
    9.09133 -63.7666 174.395
    9.31462 -28.2369 3.23008
    10.6172 118.047 125.334
    9.36103 -16.8631 85.0005
    9.51167 -90.4748 168.421
    9.8176 -92.2148 172.796
    9.67525 -11.0049 85.6849
    9.72374 -21.0461 8.1823
    9.79327 98.8546 100.938
    9.17859 -113.315 178.468
    9.39174 -68.3003 149.141
    11.9633 -33.2353 96.3419
    10.6018 -114.786 166.23
    9.88137 -40.4689 100.845
    9.93184 -24.9086 88.8854
    9.7676 -74.8053 171.445
    9.7901 -21.5536 2.25699
    9.73057 -26.475 91.0564
    9.9016 -22.2114 3.18042
    10.0006 -23.9364 9.31977
    9.43708 -20.6221 9.11752
    9.90841 -86.6468 169.619
    9.78125 -19.9318 85.2387
    9.89216 -6.91356 98.2372
    10.4362 -23.9352 86.9707
    9.5883 -109.329 153.171
    9.64168 -64.6564 145.328
    10.6352 -8.43885 87.0613
    10.6377 -98.1075 171.023
    9.74955 -84.3643 173.739
    9.91752 -54.586 131.947
    9.86268 -61.0716 140.186
    11.0337 116.596 153.392
    10.4362 119.905 134.056
    9.89182 -72.0101 156.267
    10.6497 119.083 129.686
    9.81451 26.8239 165.005
    10.1302 -20.7881 11.805
    11.2889 -16.5021 65.5401
    10.1562 -16.4315 7.10689
    10.4286 -16.429 9.10256
    10.6525 -24.8308 11.7356
    10.5277 -95.8543 164.796
    11.1059 10.6857 98.9835
    12.2441 117.119 120.167
    10.5768 104.124 103.049
    10.9821 120.164 138.875
    10.0682 -77.3608 170.04
    10.5002 -20.0346 75.5704
    11.1318 -96.8241 167.552
    10.2533 -83.4522 170.077
    10.0516 -16.7334 55.3852
    11.43 -54.9783 168.67
    10.2103 -80.6694 166.255
    10.1574 88.1541 107.578
    10.3436 -75.9929 164.586
    10.5487 -17.6453 72.9191
    12.6069 -33.4357 2.87669
    10.504 -44.57 109.246
    10.2076 -29.7863 93.5435
    11.1658 -11.365 71.6103
    13.7803 -43.5361 163.328
    9.18717 -111.11 177.466
    10.2857 3.21381 165.538
    10.2277 -19.1649 55.7633
    11.3992 -32.0133 3.42483
    10.3371 -8.33177 168.228
    10.3257 -17.2341 60.6257
    11.0172 -63.2952 146.37
    9.96754 -31.8616 3.53284
    11.3024 -24.7965 166.31
    10.4941 -18.3591 58.6252
    10.7744 -70.2909 167.77
    10.6218 -7.23356 91.6098
    10.8367 -23.1034 82.2377
    12.7024 106.292 166.96
    10.5958 -112.592 153.701
    10.584 -18.1091 2.35635
    10.8039 -20.5776 60.0739
    10.7846 33.4429 165.75
    10.7213 78.8029 114.32
    11.1804 -25.7929 10.0527
    11.0042 -18.2002 50.9899
    10.9471 -101.71 171.208
    11.381 -13.8878 65.4191
    10.9335 -9.89925 84.6028
    11.495 -16.7562 11.8718
    10.8359 14.1763 164.099
    11.2944 -106.819 169.578
    10.8601 -114.538 155.541
    10.7595 -105.462 155.093
    15.0148 -29.0575 3.74261
    10.7529 -99.0091 160.365
    11.1648 100.738 98.5866
    10.9423 -70.4169 165.366
    11.4104 -18.981 1.92037
    10.8918 -57.9228 137.532
    10.6881 -14.5511 60.3378
    11.1686 -114.866 160.674
    10.8386 -72.0286 162.314
    10.9202 -15.3631 50.6428
    11.7575 98.3007 96.8985
